x	y	z
-3.441067193 9.641900241 -0.562868172
-3.387293147 10.81744577 -0.513348964
-3.413133633 9.657119686 -0.563142652
-3.35497646 10.83064907 -0.513484683
-3.373265063 9.638329575 -0.56144082
-3.147742283 11.7891134 -0.438901117
-3.313538297 10.8141477 -0.512217906
-3.340409571 9.639198881 -0.560891861
-3.420930972 12.97182148 -0.482539614
-3.282083609 10.82999823 -0.512489346
-3.305960471 9.635235344 -0.560068364
-3.379102802 12.97451918 -0.482252022
-3.243966722 10.82374871 -0.511720267
-3.273494041 9.636823526 -0.559574301
-3.331316902 12.95385323 -0.481101771
-3.209041474 10.82790321 -0.511448827
-3.240094411 9.63546333 -0.558915491
-3.29328077 12.97079297 -0.481353392
-3.175806779 10.83769815 -0.511448827
-3.207995334 9.637779928 -0.558476324
-3.24982716 12.96629549 -0.480814179
-3.141152455 10.84259255 -0.511222627
-3.178099449 9.646627674 -0.558421428
-3.202592101 12.94613145 -0.47969987
-3.102922486 10.83489217 -0.510408309
-3.147250811 9.652535624 -0.558201844
-3.166414038 12.97045865 -0.480239054
-3.069394755 10.84339894 -0.510363068
-3.112410052 9.645991837 -0.557268555
-3.125670356 12.97622585 -0.480095258
-3.037728029 10.85853701 -0.510634508
-3.079157589 9.644080435 -0.556609804
-3.08468978 12.98089293 -0.47991555
-2.992421997 10.82447734 -0.508598652
-3.049555508 9.653481906 -0.556609804
-3.041429531 12.97570039 -0.479376336
-2.956040107 10.82204286 -0.508055773
-3.018137578 9.657073984 -0.556280428
-2.997104827 12.96549672 -0.478657415
-2.92386572 10.83491813 -0.508236732
-2.987316118 9.662472712 -0.556060845
-2.955536559 12.96683578 -0.478369852
-2.895757217 10.86314319 -0.509141531
-2.954446103 9.661089302 -0.555456932
-2.909168047 12.94659076 -0.477291485
-2.862670185 10.87294272 -0.509186772
-2.92508149 9.671063594 -0.555511827
-2.866625273 12.94277129 -0.476824184
-2.827539305 10.87490536 -0.508870092
-2.896255636 9.682861707 -0.555676515
-2.811986396 12.88315944 -0.474307945
-2.793665487 10.88159387 -0.508779612
-2.868234611 9.697446854 -0.556005949
-1.75599091 8.065366466 -0.598772237
-2.779592036 12.92494457 -0.475530138
-2.758549862 10.88333513 -0.508462932
-2.838469949 9.706200681 -0.556005949
-1.730401612 8.066815417 -0.598482856
-7.15197525 33.69022205 0.023443244
-2.743860828 12.95198632 -0.476213088
-2.719328057 10.8684886 -0.507377174
-2.809232831 9.716781192 -0.556115741
-1.705644924 8.072086164 -0.598482856
-7.00130585 33.48589591 0.023286006
-2.706357031 12.97110442 -0.476608505
-2.686689575 10.87969018 -0.507512894
-2.778037254 9.720553824 -0.555841202
-1.681481599 8.080210728 -0.598699877
-6.892288466 33.47685695 0.023264906
-2.666348459 12.97836782 -0.476572563
-2.652825481 10.8859407 -0.507422414
-2.746844692 9.724226721 -0.555566723
-6.793721728 33.51842516 0.0232792
-2.626320622 12.98550768 -0.476536622
-2.614978218 10.87557291 -0.506562796
-2.71297102 9.718183033 -0.554743285
-1.63009593 8.081576185 -0.598048755
-6.674814351 33.45869545 0.023223384
-2.584908564 12.9856623 -0.476249029
-2.579755564 10.87576844 -0.506200877
-2.667477203 9.669670725 -0.551504309
-1.605294252 8.086539642 -0.598048755
-6.582342626 33.53102433 0.02325946
-2.543904479 12.98764744 -0.47603338
-2.54364608 10.8719599 -0.505657998
-2.628345957 9.643127665 -0.549527997
-1.579330435 8.085553554 -0.597614655
-6.424830104 33.26828302 0.023063424
-2.49742896 12.96104568 -0.474775245
-2.506685997 10.86413778 -0.504934158
-2.604979799 9.674286121 -0.550845499
-1.553763976 8.086442817 -0.597325216
-6.344753349 33.40376698 0.023143745
-2.45058249 12.93133537 -0.473409315
-2.474008232 10.87469909 -0.505069878
-2.566817512 9.650389366 -0.549033875
-1.527466311 8.083330893 -0.596746453
-6.203504843 33.21565919 0.023000122
-2.403209615 12.89752947 -0.471899559
-2.439321864 10.87638975 -0.504798439
-2.536691006 9.65628676 -0.548924083
-1.502477592 8.086999068 -0.596674094
-6.098320749 33.21683043 0.02298787
-2.37281145 12.95497537 -0.473732819
-2.408098356 10.89357614 -0.505250838
-2.504546883 9.654358713 -0.548375124
-5.996029404 33.23341825 0.022986508
-2.327921263 12.93367109 -0.472690394
-2.368712183 10.87358299 -0.503984061
-2.473181553 9.655226295 -0.547990853
-5.884617368 33.19848616 0.022949751
-2.278659922 12.88662758 -0.470713367
-2.334502848 10.8768914 -0.503803101
-2.442079313 9.656961179 -0.547661419
-1.426251715 8.090661938 -0.595950553
-5.781194981 33.20751604 0.022943626
-2.24526916 12.92900387 -0.472007414
-2.301535259 10.88595757 -0.503893581
-2.409780553 9.653750721 -0.547057564
-1.399381565 8.083207231 -0.595082353
-2.204417093 12.92893541 -0.471755793
-2.269145169 10.89785753 -0.504119781
-2.375852546 9.643647519 -0.546069379
-1.373071938 8.078613027 -0.594431231
-2.160122972 12.90803915 -0.470749309
-2.234496353 10.89889556 -0.503848341
-2.343424529 9.639248659 -0.545410628
-1.348444706 8.083770577 -0.59450359
-5.466544271 33.20603429 0.022906869
-2.117920733 12.89882774 -0.470174154
-2.194131259 10.87142679 -0.502264943
-2.312210393 9.639595698 -0.545026356
-1.323154544 8.084916456 -0.59428651
-5.357629667 33.17921158 0.022876919
-2.080244385 12.91710452 -0.470605513
-2.158432529 10.86634882 -0.501722005
-2.280786304 9.638871224 -0.544587131
-1.297553716 8.084014277 -0.59392477
-5.212338334 32.92091443 0.022687689
-2.038423352 12.90960583 -0.470102271
-2.123743542 10.86605681 -0.501405325
-2.251431053 9.646795088 -0.544642085
-2.387348181 8.780294463 -0.58729392
-1.272591236 8.086972055 -0.59385241
-5.175720794 33.35178188 0.022973576
-1.996515041 12.90098511 -0.469563087
-2.089831116 10.86957802 -0.501269605
-2.222720336 9.657549876 -0.544861669
-2.358587151 8.780831732 -0.58684307
-1.247774768 8.090838168 -0.59385241
-5.071871814 33.35761716 0.022966768
-1.956926041 12.9070495 -0.469563087
-2.055731324 10.87201248 -0.501088646
-2.192418012 9.661402389 -0.544696981
-2.33138097 8.787061891 -0.586778638
-1.223095488 8.095614525 -0.59392477
-4.911478268 32.98331925 0.02269858
-1.919079854 12.92485407 -0.469994446
-2.021636558 10.8743396 -0.500907686
-2.159061143 9.651517644 -0.543763692
-1.197814885 8.096368722 -0.59370769
-4.808676844 32.98734534 0.022691094
-1.877980535 12.92079133 -0.46963497
-1.987187524 10.87459482 -0.500636247
-2.127935704 9.651271155 -0.543379421
-4.709568728 33.01679397 0.022701304
-1.837487003 12.92055613 -0.469419291
-1.952932577 10.87572404 -0.500410047
-2.094076143 9.638239177 -0.542281444
-4.611982877 33.05782923 0.022719682
-1.79838937 12.93009176 -0.469563087
-1.918689441 10.87674498 -0.500183847
-2.06303356 9.637783726 -0.541897172
-4.520001007 33.14117851 0.022767329
-1.758577273 12.9345581 -0.469527145
-1.88479941 10.87962697 -0.500048127
-2.032425669 9.639182643 -0.541622693
-1.096629766 8.0976094 -0.592767188
-4.409453676 33.08847801 0.022721724
-1.718491542 12.93692013 -0.469419291
-1.85090986 10.88240449 -0.499912408
-2.00264038 9.644395728 -0.541567797
-1.071519788 8.098958032 -0.592622468
-4.304821695 33.07804958 0.022705388
-1.674936888 12.91240043 -0.468340923
-1.817020904 10.88507564 -0.499776688
-1.969842356 9.634841595 -0.540689403
-2.133684171 8.800185987 -0.584459897
-1.046028643 8.097262024 -0.592260728
-4.198656867 33.05439699 0.022680203
-1.633808204 12.90558137 -0.467909565
-1.782810075 10.88566916 -0.499550488
-1.936333772 9.621262429 -0.539591427
-2.104353834 8.796985694 -0.583815751
-1.019934123 8.090537733 -0.591537188
-4.070789927 32.85375528 0.022533857
-1.592002232 12.89268023 -0.467262527
-1.74766225 10.88023782 -0.49905279
-1.905061 9.618342908 -0.539097364
-2.07483404 8.792715796 -0.58310723
-0.993160523 8.077789526 -0.590379605
-3.300435376 14.15978926 -0.405612719
-1.552321098 12.89651079 -0.467226585
-1.7148955 10.88949635 -0.49923375
-1.87554338 9.624142308 -0.539097364
-2.042419695 8.775713809 -0.581561384
-0.967186869 8.070895416 -0.589656064
-3.720929622 31.61880452 0.021670756
-3.289447317 14.31110803 -0.409656298
-1.512166039 12.89625054 -0.467046847
-1.684374154 10.9134648 -0.500093367
-1.847887959 9.639657219 -0.539646323
-2.014370631 8.777075241 -0.58123934
-0.940917924 8.060946178 -0.588715562
-3.780191495 32.99414816 0.022605329
-3.225199964 14.23144252 -0.407090706
-1.474293764 12.91572225 -0.46758606
-1.646553124 10.88993594 -0.49878135
-1.81775027 9.642337058 -0.539481635
-1.986772735 8.780293895 -0.581046102
-0.915507272 8.057849535 -0.588281462
-3.611706564 32.40232631 0.022192157
-3.175638794 14.21493071 -0.40633778
-1.431573882 12.89237349 -0.466579547
-1.60991653 10.87319578 -0.497786072
-1.7828825 9.619397821 -0.537889595
-1.958522243 8.780504128 -0.580659684
-0.891767792 8.069541964 -0.588932583
-3.529948217 32.57629871 0.022303787
-3.135237257 14.23924994 -0.406756085
-1.391477598 12.89173692 -0.466399838
-1.573398162 10.85633398 -0.496790793
-1.756404341 9.641522035 -0.538822884
-1.927718115 8.768927367 -0.579500255
-0.866047986 8.0633153 -0.588281462
-3.438572455 32.66852354 0.022359603
-3.1161237 14.36211943 -0.409990949
-1.351919812 12.89594547 -0.466399839
-1.537980294 10.84627328 -0.496112135
-1.725232922 9.638018593 -0.538328821
-1.900806355 8.774800408 -0.579500255
-0.841616443 8.068909875 -0.588498482
-3.344021821 32.73463055 0.022397722
-1.313562969 12.91196287 -0.466831168
-1.505246026 10.85489836 -0.496293095
-1.69842255 9.659001173 -0.539207156
-1.873251761 8.777663122 -0.579307017
-0.816957835 8.072445914 -0.588570842
-3.245746278 32.76662795 0.022412696
-1.271687329 12.89305812 -0.466004421
-1.47462017 10.87926428 -0.497197952
-1.666572372 9.651374912 -0.538493508
-1.846724089 8.785322289 -0.579435882
-0.792188087 8.074914285 -0.588570842
-3.130780859 32.62612232 0.022309913
-1.231175582 12.88695021 -0.465644975
-1.443465453 10.90057317 -0.497967032
-1.633449996 9.635769693 -0.537340636
-1.8205715 8.794854897 -0.579693493
-0.767033492 8.07333571 -0.588281462
-3.02798899 32.6067004 0.022290175
-1.189149417 12.86379965 -0.464674433
-1.411040983 10.912876 -0.498328951
-1.601750018 9.627930681 -0.536626989
-1.790192871 8.783776168 -0.578598555
-0.741165798 8.063732413 -0.587413202
-2.90969885 32.41265068 0.022151317
-1.147010132 12.8375253 -0.463596036
-1.376428606 10.90823343 -0.497921791
-1.570756828 9.623930645 -0.536132867
-1.761469623 8.780420721 -0.57801884
-0.714393614 8.043118442 -0.585749159
-2.822248041 32.55990714 0.02224593
-1.105300959 12.81410098 -0.462625494
-1.340393646 10.8915836 -0.496971753
-1.541381415 9.629689995 -0.536187763
-1.73162418 8.771098561 -0.57705265
-0.689884683 8.047259444 -0.585893878
-2.718510506 32.52257181 0.022214619
-1.066810917 12.82739071 -0.462984969
-1.304711834 10.87679865 -0.496112135
-1.51090199 9.628455537 -0.535858388
-1.702803853 8.766573811 -0.576408562
-0.665274963 8.05033278 -0.585966239
-2.619281582 32.53773575 0.022219383
-1.0279307 12.8365801 -0.463200619
-1.271336177 10.88075098 -0.496112135
-1.480899858 9.630084448 -0.5356937
-1.675151327 8.767835434 -0.57615095
-0.639703697 8.041398852 -0.585170338
-2.516666275 32.50972635 0.022194878
-0.992302746 12.88849741 -0.464961996
-1.236142263 10.86871827 -0.495388296
-1.446588763 9.60298722 -0.533936972
-1.647506938 8.769010701 -0.57589328
-0.614877957 8.041334546 -0.585025677
-0.951799179 12.87852457 -0.464494695
-1.202681931 10.87146701 -0.495343056
-1.416828933 9.605404746 -0.53382718
-1.619871269 8.770098662 -0.575635668
-0.591007491 8.054125266 -0.585821519
-2.266333147 31.81136444 0.021708193
-0.910801356 12.86045072 -0.463739832
-1.168682215 10.86914646 -0.495071617
-1.388209424 9.615636166 -0.534156556
-1.592779094 8.774045217 -0.575571236
-0.567274157 8.069828958 -0.586834439
-0.872219825 12.87614597 -0.464207133
-1.135953179 10.87864144 -0.495343056
-1.359261099 9.623804277 -0.534376139
-1.565853229 8.778890565 -0.575571236
-0.541376501 8.05461498 -0.58560444
-2.09882942 32.25077214 0.021998844
-0.831422589 12.85881594 -0.463488211
-1.100457921 10.86120414 -0.494393017
-1.328636413 9.620016615 -0.533936972
-1.53977364 8.788567661 -0.57589328
-0.516726582 8.057233255 -0.585676799
-1.999133096 32.24508195 0.021990676
-0.790371466 12.83537236 -0.462553611
-1.068205179 10.87546552 -0.494890657
-1.298047801 9.616131168 -0.533497805
-1.513649471 8.798167943 -0.576215324
-0.491093276 8.04384742 -0.584591577
-1.891374615 32.1013202 0.021888574
-0.750755891 12.83374644 -0.462409815
-1.035402302 10.88465762 -0.495162096
-1.267626032 9.613138802 -0.533113475
-1.484988171 8.792930442 -0.575571236
-0.466239596 8.042328606 -0.584374496
-0.711489619 12.83798417 -0.462481698
-0.998616422 10.85097679 -0.49348816
-1.236597434 9.605099083 -0.532454724
-1.45849433 8.800398225 -0.575764474
-0.441563888 8.043721812 -0.584374497
-1.695317505 32.13029873 0.021900826
-0.671211817 12.82314123 -0.461870631
-0.968949788 10.89478626 -0.495343056
-1.205878961 9.598940454 -0.531905765
-1.43068751 8.799906125 -0.57544243
-0.416058201 8.029101372 -0.583216914
-0.633343129 12.85508411 -0.462948998
-0.935264199 10.89472239 -0.495207337
-1.175210014 9.592684042 -0.531356747
-1.39849819 8.771734065 -0.57331687
-0.391714641 8.036317664 -0.583651015
-1.498836188 32.15507911 0.021911035
-0.593578488 12.8499791 -0.462697377
-0.900187438 10.87762827 -0.494302537
-1.146603202 9.603184133 -0.531741077
-1.371888441 8.7779548 -0.573445675
-0.366966732 8.035489213 -0.583506296
-0.552516556 12.81379906 -0.461331447
-0.866176465 10.87237255 -0.493940559
-1.116097556 9.597730652 -0.531246955
-1.342081358 8.763380151 -0.572221872
-0.342100243 8.031594198 -0.583144554
-0.513041837 12.81143964 -0.461187651
-0.832663839 10.87298619 -0.493850079
-1.085074821 9.58721933 -0.530478413
-1.315337452 8.768443049 -0.572286304
-0.317300483 8.028619932 -0.582855174
-1.177378673 31.48698757 0.021447494
-0.472996014 12.79297979 -0.460468729
-0.800180753 10.88744574 -0.494393017
-1.054236306 9.577601093 -0.529764707
-1.288140047 8.770463211 -0.572157499
-0.292449577 8.023574739 -0.582421072
-1.098574407 32.00914592 0.021800767
-0.433136001 12.77639341 -0.459821692
-0.766353745 10.88386984 -0.494121578
-1.024847765 9.580790197 -0.529764707
-1.260942606 8.772397983 -0.572028693
-0.267732387 8.021444428 -0.582203994
-0.999179646 31.97438276 0.0217749
-0.393289833 12.75668516 -0.459066828
-0.732824681 10.88417681 -0.494031098
-0.995449482 9.58388915 -0.529764707
-1.230410606 8.750532346 -0.570353982
-0.243121697 8.022228046 -0.582203994
-0.353845982 12.74684312 -0.458671441
-0.697571587 10.85746282 -0.492719081
-0.965941672 9.585904223 -0.529709811
-1.206005087 8.77206124 -0.571513411
-0.217938472 8.001998858 -0.580684612
-0.800685534 31.88894195 0.021712958
-0.314762211 12.74886812 -0.458707382
-0.664624032 10.86553456 -0.49299052
-0.936139736 9.584847961 -0.529490228
-1.17868843 8.772752792 -0.571320173
-0.194833358 8.062454786 -0.585025677
-0.275582958 12.74677655 -0.458599528
-0.632328698 10.88547428 -0.49380484
-0.907105524 9.591651378 -0.529709811
-1.145275956 8.726855888 -0.568099616
-0.23640095 12.74356488 -0.458455761
-0.600740355 10.92027937 -0.495297816
-0.877492565 9.592400366 -0.529600019
-1.11900418 8.734286989 -0.568357285
-0.145377381 8.064496315 -0.585098037
-0.197086556 12.7302409 -0.457952519
-0.567027364 10.91808044 -0.495116857
-0.848147239 9.596041346 -0.529654915
-1.090345896 8.722826245 -0.567391095
-0.120441248 8.051939346 -0.584157476
-0.53289471 10.90679727 -0.494528737
-0.818109016 9.591634718 -0.529270644
-1.064183194 8.731083162 -0.567713198
-0.094883937 7.980464832 -0.578948209
-0.497603053 10.86846358 -0.492719081
-0.787942225 9.585142855 -0.528776581
-1.036450079 8.726379136 -0.567197915
-0.463787838 10.85895992 -0.492221441
-0.756405418 9.560640351 -0.527294333
-1.011507466 8.745379131 -0.56822848
-0.429402565 10.83338063 -0.490999934
-0.726843126 9.559928658 -0.527129645
-0.981100578 8.716708254 -0.566167351
-0.395908675 10.8276592 -0.490683254
-0.69787347 9.567092859 -0.527404124
-0.955330671 8.728605221 -0.566747007
-0.36205265 10.80985327 -0.489823666
-0.668727489 9.572177549 -0.527568812
-0.928863781 8.734471598 -0.566940245
-0.328461524 10.79693346 -0.489190277
-0.639623446 9.578168682 -0.527788395
-0.902369861 8.740258315 -0.567133483
-0.294652617 10.77292574 -0.488059279
-0.609536856 9.569124639 -0.52718454
-0.875451462 8.741992363 -0.567069051
-0.261406385 10.76578898 -0.48769733
-0.578726338 9.547030016 -0.52586698
-0.849301985 8.751589904 -0.567519959
-0.228418545 10.76853846 -0.48778781
-0.548802763 9.537795191 -0.525263125
-0.820208292 8.730308874 -0.565974112
-0.195561268 10.77917623 -0.488240239
-0.518941376 9.528467359 -0.524659212
-0.794052288 8.739741373 -0.566424963
-0.489757235 9.53101132 -0.524714107
-0.76217514 8.684478011 -0.562689181
-0.459406048 9.509530771 -0.523451443
-0.734770192 8.677826738 -0.562109467
-0.08162173 7.076701922 -0.581227771
-0.429958326 9.504910685 -0.523122068
-0.70806238 8.679045637 -0.562045035
-0.401048004 9.512170021 -0.523451442
-0.683306376 8.705053843 -0.563590882
-0.371668205 9.508367189 -0.523176963
-0.655320744 8.690191833 -0.562495943
-0.34202799 9.496491006 -0.522463317
-0.628800482 8.694152945 -0.56262475
-0.312332632 9.480530691 -0.521530028
-0.601159215 8.68210327 -0.561722991
-0.283096245 9.476453613 -0.521255548
-0.574256549 8.679923622 -0.561465379
-0.253780776 9.46829431 -0.520761484
-0.547749868 8.683636226 -0.561594185
-0.224446971 9.457050327 -0.520102675
-0.520687881 8.678302729 -0.561143335
-0.196030307 9.486644088 -0.521694715
-0.494004051 8.678863391 -0.561078903
-0.166924776 9.487200828 -0.521694715
-0.467268057 8.678344947 -0.560950097
-0.137788663 9.485671385 -0.521584923
-0.440641067 8.679738119 -0.560950097
-0.41405745 8.682045365 -0.56101447
-0.072142798 6.62987846 -0.607019108
-0.387508323 8.685269546 -0.561143336
-0.047515249 6.081379838 -0.556783716
-0.360777642 8.684422945 -0.561014471
-0.333979071 8.681500649 -0.560756859
-0.307131201 8.676499797 -0.560370382
-0.280510625 8.677401689 -0.560370383
-0.253829058 8.67622598 -0.560241576
-0.227157322 8.67496871 -0.56011277
-0.200403459 8.669639705 -0.559726295
-0.174184445 8.68916963 -0.560950097
-0.147542566 8.690661259 -0.561014471
-0.120532345 8.666127572 -0.559404251
-0.044876275 6.045819865 -0.613169419
-0.025777538 5.919578346 -0.600355135
-0.007538322 5.858941011 -0.59420024
0.010415424 5.846997784 -0.592989431
0.268322543 6.497265874 -0.595349174
0.028344063 5.844948425 -0.59278761
0.046189333 5.833890633 -0.591677713
0.064076316 5.832726709 -0.591576802
0.082068432 5.839466335 -0.592283117
0.100238769 5.854108081 -0.593796598
0.118238618 5.855762663 -0.59399842
0.136180156 5.854377383 -0.593897508
0.154114299 5.852937716 -0.593796599
0.171982422 5.849453823 -0.593493925
0.190024348 5.85188173 -0.593796598
0.209036982 5.881099276 -0.59682362
0.235332877 6.094173759 -0.618517147
1.351850046 7.110261979 -0.594405822
1.725961057 6.694821034 -0.567804091
1.657619426 6.349089084 -0.538910501
1.648052027 6.234129561 -0.529579452
1.668974075 6.235783355 -0.530152373
1.675326487 6.183497259 -0.526141694
3.778881418 11.2126941 -0.425601085
3.832909697 11.2587563 -0.427793791
3.854109382 11.20819736 -0.426320006
1.64388782 6.202001429 -0.587417285
3.888149797 11.19537665 -0.426284065
1.651551371 6.154609377 -0.583405714
3.920493852 11.1777374 -0.426068386
1.66677101 6.136059225 -0.58212934
3.949763484 11.15152596 -0.425529172
2.64786502 7.463404332 -0.574462483
1.668692864 6.069463839 -0.576294344
3.985976578 11.14500158 -0.425744852
1.677696239 6.029777732 -0.573012214
4.013701018 11.11486175 -0.425061901
1.67945493 5.965171084 -0.567359549
4.049151176 11.10625149 -0.425205668
1.687107947 5.922638582 -0.563803892
4.084241322 11.09658969 -0.425313522
1.701685619 5.904994994 -0.562618654
4.121398573 11.0924386 -0.425637027
2.761688283 7.420975337 -0.574390123
1.717285663 5.891142181 -0.561798136
4.158217758 11.08722739 -0.425924589
1.733098411 5.878204339 -0.561068754
4.181245404 11.04544504 -0.424810251
3.313105906 9.817409229 -0.469239023
1.748278797 5.863316627 -0.560157041
4.215112535 11.03256512 -0.424810251
3.346432999 9.816653767 -0.469691452
1.765971559 5.856971847 -0.560065847
4.247501973 11.01585178 -0.424666484
3.371330545 9.791228084 -0.468967583
1.784803298 5.854383982 -0.560339372
4.282727666 11.00649355 -0.424810251
3.398072479 9.77140371 -0.468515184
1.801875918 5.846025825 -0.560065847
4.319032001 10.99981455 -0.425061902
3.427372868 9.759047939 -0.468424705
1.825727666 5.859485266 -0.561889272
4.355334949 10.99301574 -0.425313523
3.45729695 9.748486407 -0.468424704
1.848482157 5.869054103 -0.563348036
4.386815201 10.97403411 -0.425097843
3.491903808 9.751001078 -0.469058064
1.865271236 5.85955938 -0.562983374
4.422704822 10.96608493 -0.425313522
3.524520347 9.747757837 -0.469420013
1.883849245 5.855705547 -0.563165705
4.44314544 10.92006639 -0.424055388
3.559205401 9.750035792 -0.470053371
4.483457347 10.92302414 -0.424702426
3.58979229 9.740945365 -0.470143851
4.517330108 10.91014172 -0.424738368
3.615828735 9.719587241 -0.469646212
4.552321113 10.89991944 -0.424882164
3.647035777 9.712189371 -0.469827172
2.962899103 8.853262668 -0.513295348
5.001209019 14.81501642 -0.285491971
4.589231934 10.89419122 -0.425205668
3.678585445 9.705625378 -0.470053372
2.992924653 8.852643366 -0.51378941
5.050509797 14.81095951 -0.285711048
4.627713522 10.89201675 -0.425672968
3.710485853 9.6998924 -0.470324811
3.017488724 8.83586062 -0.513350243
5.090064483 14.77837953 -0.285382447
4.664650241 10.88603554 -0.425996473
3.739148082 9.685667317 -0.470189092
3.054675849 8.855823324 -0.515052075
5.457634949 15.68908015 -0.303290723
4.709522556 10.89827654 -0.427038928
3.767757655 9.671357718 -0.470053372
3.084130083 8.853009806 -0.515436346
5.526619994 15.73169148 -0.304440794
4.737745713 10.87186736 -0.426571628
3.795949312 9.656033772 -0.469872412
3.107299597 8.832203689 -0.514777596
5.57184995 15.70618127 -0.304276494
4.772686156 10.86094048 -0.426715394
3.831080896 9.658271143 -0.470551011
3.135050312 8.824510972 -0.514887388
5.628101522 15.71160387 -0.304714618
4.803555454 10.84076424 -0.426499715
3.859951652 9.644616843 -0.470460531
3.154354562 8.793234265 -0.513624723
5.678318236 15.69990457 -0.304824171
4.836791871 10.8259766 -0.426499715
3.888400697 9.629951049 -0.470324811
3.185397356 8.794781492 -0.514283533
5.711368343 15.64108556 -0.304020939
4.872855554 10.81746447 -0.426751365
3.916795909 9.615200732 -0.470189091
3.208592366 8.774652074 -0.513679619
5.793218445 15.7154256 -0.305809942
4.914285184 10.82066189 -0.427470286
3.942479403 9.593899025 -0.469736692
3.242412988 8.783501373 -0.514777596
5.840359111 15.69476765 -0.305755166
4.949955683 10.81098599 -0.427685936
3.974189697 9.587294746 -0.470008131
3.27073997 8.77725438 -0.514997179
5.894811129 15.6936232 -0.306083766
4.371846116 13.05085764 -0.383972598
4.990638809 10.81208217 -0.428332975
4.003584773 9.575057461 -0.470008132
3.296949581 8.765309546 -0.514887387
2.730609776 8.142464954 -0.554315802
5.952500419 15.70070647 -0.306576637
4.411224145 13.03549005 -0.383916837
5.020413442 10.78947129 -0.428045412
4.035658794 9.569172946 -0.470324811
3.323117009 8.753286878 -0.514777596
2.74533158 8.103804721 -0.552254674
5.998497685 15.67676803 -0.306467114
4.451842401 13.02378687 -0.383972598
5.043730862 10.75320793 -0.427218636
4.068125791 9.564100357 -0.47068673
3.351384928 8.746779674 -0.514997179
2.780519683 8.125557277 -0.554315803
6.046564928 15.65829069 -0.306467114
4.488841449 13.00156408 -0.383721632
5.09378324 10.77382203 -0.428656479
4.102175015 9.56259199 -0.47122964
3.377123729 8.733662915 -0.514832492
2.795003975 8.086807206 -0.552254674
4.529696177 12.99056261 -0.383805287
5.128102975 10.76085091 -0.428764334
4.125940368 9.537125762 -0.470596251
3.404991163 8.726051126 -0.514997179
2.819471788 8.077251392 -0.552190241
4.577829815 13.00017613 -0.384502453
5.157198138 10.73695958 -0.428440829
4.153982079 9.521675362 -0.470460531
3.430283 8.711847899 -0.514777596
2.843575762 8.066681244 -0.552061436
4.612668275 12.97194252 -0.384084148
5.191856216 10.72468527 -0.428584596
4.183174487 9.508886052 -0.470460531
3.4551512 8.69664272 -0.514503116
2.872326504 8.069200653 -0.552834388
4.661226762 12.982191 -0.384809208
5.230869858 10.72128046 -0.429087838
4.213947703 9.499660005 -0.47064149
3.481815699 8.686002179 -0.514503116
2.900781845 8.070680928 -0.553542908
4.705121783 12.97910653 -0.385143858
5.270351902 10.71863413 -0.429627022
4.247151448 9.495806344 -0.471093919
3.506950303 8.671575911 -0.514283532
2.93131572 8.077690979 -0.554637847
4.749041607 12.97587556 -0.385478479
5.300549115 10.69704146 -0.429411371
4.284888113 9.501855968 -0.472043988
3.5350466 8.664474211 -0.514503116
2.957800298 8.073345048 -0.554959891
4.792293384 12.97062128 -0.38575734
5.348521539 10.71112797 -0.430633535
4.312365248 9.485027279 -0.471862998
3.562372148 8.655434997 -0.514612908
2.980478051 8.058616834 -0.554573473
4.838002318 12.97177891 -0.386231435
5.38629886 10.70448858 -0.431028923
4.330206089 9.447233344 -0.470641491
3.58967558 8.646309349 -0.5147227
3.001348127 8.039151133 -0.553864953
4.874606544 12.94845609 -0.38598044
5.415498991 10.68078254 -0.43074136
4.355397967 9.425742797 -0.470234331
3.611942721 8.625124838 -0.514118845
3.018607846 8.010294968 -0.552512344
4.910048257 12.92222684 -0.385645819
5.448696606 10.66500757 -0.430777302
4.384716982 9.413241913 -0.470279571
3.634890617 8.605724997 -0.513624723
3.041749848 7.997265394 -0.552254674
4.94644891 12.89870163 -0.385394824
5.481848138 10.6491299 -0.430813243
4.421218708 9.41602208 -0.47109392
3.658144949 8.587183809 -0.513185556
3.068059026 7.992554129 -0.552576718
3.62957741 7.041815055 -0.574679562
6.735506583 15.69709336 -0.311870632
4.984194279 12.87880455 -0.385255379
5.51955459 10.64202061 -0.431208661
4.449230953 9.400607415 -0.47100344
3.696691288 8.604359974 -0.514887388
3.100135343 8.002645205 -0.553929327
6.802295181 15.7194827 -0.312728641
5.02295534 12.86159053 -0.385199619
5.54708646 10.61529358 -0.430813243
4.483642475 9.398634159 -0.471591559
3.718308316 8.581983794 -0.514228637
3.128305912 8.00239023 -0.554573473
6.851289727 15.70037229 -0.312765149
4.857519986 12.32624846 -0.369610918
5.57776563 10.59468849 -0.430669477
4.514187461 9.388435778 -0.471772519
3.75341468 8.590665309 -0.515436347
3.153574493 7.994612075 -0.554702279
6.902647089 15.68659994 -0.31291118
4.836218239 12.16266808 -0.365149063
5.610243134 10.57752551 -0.430669476
4.547326099 9.383532515 -0.472224948
3.773714375 8.565403035 -0.514612908
3.176241724 7.980263462 -0.554380235
6.95520093 15.67540285 -0.313111988
4.788649488 11.93624951 -0.358790857
5.644081238 10.56290817 -0.430777302
4.587052857 9.391978147 -0.473355975
3.810919951 8.578422537 -0.516095156
3.199594218 7.967703343 -0.554186997
7.005301533 15.65855367 -0.313203273
4.806119945 11.87424665 -0.35736866
5.679776813 10.55170242 -0.431028923
4.618933869 9.384134386 -0.473672655
3.840485502 8.573980595 -0.516534323
3.223274341 7.955999026 -0.55405819
7.058652365 15.6488364 -0.313440589
4.82174366 11.80854674 -0.355834884
5.726413607 10.56058325 -0.43210732
4.64548257 9.365445746 -0.473446455
3.86759401 8.563978112 -0.516644115
3.246157492 7.942378171 -0.55380052
7.107457131 15.62892754 -0.313477097
4.875081437 11.83529066 -0.35708977
5.765492727 10.55524317 -0.432610561
4.696526058 9.395826826 -0.475708481
3.893849791 8.552071475 -0.516644115
3.270509114 7.932381633 -0.55380052
7.244126883 15.80063698 -0.317365435
4.928244752 11.86089434 -0.358316792
5.797367039 10.53663013 -0.43257462
4.72533002 9.381374074 -0.475708481
3.923817625 8.548252323 -0.517138237
3.28908177 7.908489453 -0.552834388
7.223774744 15.62949416 -0.314371584
4.963064685 11.84203139 -0.358205241
5.821914477 10.50480899 -0.431999465
4.752732721 9.364160738 -0.475572762
3.944993166 8.525299932 -0.516479427
3.312171093 7.895601115 -0.55264115
7.283936676 15.63354069 -0.314900992
5.356275495 12.67105678 -0.383777392
5.854115357 10.48689842 -0.431999465
4.785987801 9.358429948 -0.476025191
3.97746105 8.526730454 -0.517302925
3.338712067 7.89091663 -0.553027627
7.373943967 15.70071505 -0.316708235
5.459025787 12.80444768 -0.388322932
5.891648913 10.47847052 -0.432394882
4.818794815 9.351694289 -0.47643235
4.00445209 8.516294736 -0.517412717
3.370738881 7.898992653 -0.554315802
7.410527497 15.65361858 -0.316215364
5.501837248 12.79590357 -0.388573927
5.930663267 10.47252054 -0.432898124
4.850224423 9.342186595 -0.47670379
4.026284358 8.494946442 -0.516863699
3.400479581 7.901447106 -0.555217561
7.480046297 15.67592799 -0.31712812
5.54146638 12.77988109 -0.388601792
5.980093871 10.48465917 -0.434156229
4.879326278 9.328147343 -0.47674903
4.052757808 8.483454692 -0.516918595
3.425896647 7.893724285 -0.555410799
5.579847241 12.76098839 -0.388546032
6.019698986 10.47926095 -0.434695413
4.908853171 9.31490089 -0.476839509
4.083963523 8.481776569 -0.517577404
3.444096618 7.869463186 -0.554444608
5.620180837 12.74655351 -0.388629687
6.053321935 10.46333921 -0.434803268
4.938813219 9.302444371 -0.476975229
4.112581575 8.474597016 -0.51790678
3.464194496 7.849730467 -0.55380052
5.675910165 12.7667011 -0.389773053
6.088412815 10.4498992 -0.435018947
4.969214047 9.290772065 -0.477156189
4.142510115 8.470012725 -0.518400843
3.496375036 7.857299875 -0.555088755
5.704828942 12.72642327 -0.389075887
6.124995477 10.43892852 -0.435342451
5.001485214 9.28251802 -0.477518138
4.164503277 8.449203884 -0.51790678
3.52209835 7.850178261 -0.555346367
5.760313377 12.74529742 -0.390191359
6.161568358 10.42783126 -0.435665955
5.029463143 9.266252439 -0.477472898
4.19307073 8.441752522 -0.518236155
3.550278662 7.848427597 -0.555990455
5.800217256 12.72938378 -0.390247119
6.193531422 10.40887885 -0.435665955
5.051638151 9.239384198 -0.47688475
4.218949928 8.428848356 -0.518236155
3.572270213 7.832959134 -0.555668411
5.865113712 12.76784707 -0.3919761
6.225950109 10.39068582 -0.435701927
5.082369729 9.228217532 -0.477110949
4.250185594 8.42656366 -0.518894965
3.594617113 7.818335955 -0.555410799
5.908458194 12.75886443 -0.392254961
6.258831576 10.3732474 -0.43577381
5.113565466 9.217822674 -0.477382418
4.273303271 8.408144051 -0.518565531
3.617747328 7.805460235 -0.555281993
5.951379361 12.74882927 -0.392505956
6.29374033 10.35912135 -0.435989489
5.146694036 9.21081173 -0.477834817
4.300444653 8.397660273 -0.518730277
3.641254602 7.793420256 -0.555217561
5.993443298 12.73684225 -0.392701161
6.33435756 10.35425573 -0.436600556
5.181787389 9.207166579 -0.478468176
4.324814349 8.381764693 -0.51856553
3.669399233 7.791240164 -0.555861649
6.032063157 12.71749129 -0.392673266
6.368190609 10.33817705 -0.436744352
5.217892328 9.205131505 -0.479192045
4.355575264 8.378202329 -0.519169444
3.695853125 7.785355367 -0.556248126
6.073207048 12.7034345 -0.392812711
6.396190767 10.31264581 -0.436492731
5.246604122 9.189947446 -0.479237285
4.383111508 8.368338378 -0.519389028
3.717997965 7.770379036 -0.555990455
6.122999944 12.7072556 -0.393509877
6.428328714 10.293822 -0.436528673
5.276765723 9.177271821 -0.479418245
4.412958676 8.362799639 -0.519883091
3.740085719 7.755340556 -0.555732843
6.15409619 12.67222529 -0.393007917
6.462007116 10.27743602 -0.436672469
5.30589758 9.162768273 -0.479508725
4.44000079 8.351866258 -0.520047779
3.765169815 7.746522254 -0.555926081
7.856049527 14.68487899 -0.304075686
6.233812796 12.73678464 -0.395601374
6.497783872 10.26431758 -0.436960032
5.334990092 9.148172484 -0.479599204
4.464660339 8.336445175 -0.519937987
3.792869023 7.74300002 -0.556505737
7.943756026 14.73992148 -0.305718658
6.181768476 12.53292217 -0.389856708
6.53568903 10.25444663 -0.43739139
5.365560564 9.13606986 -0.479825404
4.488318715 8.319193327 -0.519718404
5.941660683 11.9535479 -0.372399611
6.577372932 10.25032849 -0.438074341
5.397632824 9.126444195 -0.480187353
4.525263404 8.326439749 -0.521035964
5.986811803 11.95224362 -0.372929436
6.61367028 10.23765516 -0.438397874
5.428162756 9.114132291 -0.480413553
4.558458911 8.326530088 -0.521914298
5.971654154 11.8311963 -0.369722468
6.651041283 10.22653179 -0.438793262
5.45507136 9.095722849 -0.480323073
4.587358314 8.318626059 -0.522298628
5.992063469 11.78163576 -0.368746442
6.679099952 10.20106252 -0.438577583
5.477270014 9.069537403 -0.479825404
4.611403251 8.301895096 -0.522133941
6.014960126 11.73739799 -0.367937726
6.734564176 10.21723663 -0.440159222
5.50610745 9.054398618 -0.479915884
4.638314175 8.290321889 -0.522298628
3.935660428 7.673649598 -0.556634601
6.069286242 11.75441692 -0.369053197
6.766983637 10.19819272 -0.440231105
5.539076456 9.045982537 -0.480368313
4.664706995 8.27779242 -0.52240842
3.955061366 7.653560368 -0.556054887
6.071180948 11.6701197 -0.366989566
6.788247799 10.16242635 -0.439584096
5.568375983 9.031497521 -0.480504033
4.691066654 8.265179301 -0.522518212
6.191413458 11.81257506 -0.37206496
6.819393757 10.14155182 -0.439584096
5.595531431 9.013522309 -0.480458793
4.726807824 8.268952487 -0.523671085
6.579568074 12.46001558 -0.393091572
6.861678947 10.13713412 -0.440303018
5.625805665 9.000548406 -0.480684992
4.751158055 8.252681615 -0.523561235
6.663773031 12.52625579 -0.395824474
6.889370851 10.11108062 -0.440087339
5.66509812 9.001847431 -0.4816803
4.781963458 8.247568048 -0.524165148
6.709726307 12.51985014 -0.396270645
6.927141503 10.0997864 -0.440518697
5.695896946 8.989488176 -0.48195174
4.808754598 8.235445241 -0.524329836
6.764251391 12.52911271 -0.397218806
6.96150118 10.08342075 -0.440734347
5.729896575 8.982076823 -0.482494619
4.832479901 8.218070818 -0.524165148
6.804091038 12.51093549 -0.397302461
6.993544708 10.06365736 -0.44080626
5.759585412 8.967818318 -0.482675609
4.853090754 8.195474328 -0.523671085
6.834757491 12.47597485 -0.39685629
7.027250813 10.04624785 -0.440985968
5.793037727 8.959333595 -0.483173248
4.883836543 8.189980341 -0.52427494
6.875898827 12.4601986 -0.397023601
7.06091577 10.02872696 -0.441165706
5.826492237 8.950727986 -0.483670887
4.91356643 8.182662236 -0.524769003
6.908751985 12.42943468 -0.396716846
7.102051193 10.02169383 -0.441812744
5.861591172 8.944507746 -0.484304276
4.936064376 8.163276591 -0.524494523
8.831785638 14.52016787 -0.310300705
6.96931531 12.44830217 -0.397999627
7.144369996 10.0161305 -0.442531665
5.893405956 8.933154099 -0.484666195
4.968874663 8.160887578 -0.525318021
8.873158108 14.48788824 -0.310191182
6.995689152 12.40596502 -0.397330356
7.194298498 10.02095384 -0.443717887
5.935706682 8.937499112 -0.485887703
4.990757051 8.140497261 -0.524988587
8.888700092 14.4137912 -0.309187142
7.027793358 12.37401366 -0.396995706
7.251347479 10.0352855 -0.445335438
5.965875069 8.923399331 -0.486113903
5.02147787 8.134493371 -0.5255925
8.948173829 14.41108646 -0.30971652
7.090043431 12.39491139 -0.398362172
7.285039903 10.01703316 -0.445515176
5.997127616 8.91085521 -0.486430582
5.045883251 8.118201485 -0.525537604
7.139014765 12.39215637 -0.398975683
7.329313686 10.01318245 -0.446341952
6.026679117 8.895723035 -0.486611542
5.06864715 8.099297729 -0.525318021
7.173488096 12.36414354 -0.398780477
7.36118435 9.992259242 -0.446413835
6.045499712 8.864811577 -0.485932943
5.099858965 8.093846744 -0.525976772
7.215421296 12.34898175 -0.399003548
7.401328964 9.982472277 -0.44698896
6.070972027 8.843751788 -0.485797223
5.125736197 8.079848218 -0.526086564
7.257328982 12.33367908 -0.399226648
7.44208001 9.973334936 -0.447600057
6.096371708 8.822618773 -0.485661503
5.158025259 8.075865417 -0.526855165
7.310421601 12.33715547 -0.400063259
7.503248628 9.99120965 -0.449433287
6.137100598 8.823556851 -0.486747291
5.194658118 8.078479412 -0.528062875
7.341578048 12.30351034 -0.399700714
7.549532675 9.98887236 -0.450367888
6.174454758 8.819416819 -0.48756161
5.235154117 8.086811873 -0.529654915
7.37877531 12.2800717 -0.399672848
7.588613034 9.976799186 -0.45087113
6.211841203 8.815131075 -0.488375958
5.261575128 8.073222451 -0.529819603
7.416415329 12.25737623 -0.399672848
7.622830035 9.958231656 -0.451086809
6.245213497 8.804995687 -0.488873598
5.287414213 8.058712006 -0.529929395
7.456065946 12.23797977 -0.399784398
7.657614854 9.940340447 -0.451338431
6.272778246 8.786607405 -0.488918838
5.31046219 8.039953168 -0.529764707
7.507689725 12.23805283 -0.400537324
7.696035462 9.927068048 -0.451805731
6.299705331 8.767320954 -0.488918838
5.333997789 8.021959403 -0.529654915
7.540472498 12.20730814 -0.400286359
7.743667043 9.925471646 -0.452812215
6.328329823 8.750380735 -0.489054557
5.358028181 8.004727838 -0.529600019
7.573136805 12.17647692 -0.400035364
7.782104165 9.911885809 -0.453279515
6.36043701 8.738193816 -0.489461746
5.377539418 7.98079979 -0.529105956
7.633801734 12.19046292 -0.401262385
7.808140105 9.882475806 -0.453027894
6.399613182 8.735561948 -0.490411785
5.406482799 7.97087476 -0.529545123
7.67169844 12.16783092 -0.40129028
7.829715145 9.847522255 -0.452524652
6.429347387 8.719907837 -0.490638014
5.433163905 7.95754914 -0.529764707
7.714885924 12.15351998 -0.401597035
7.841783896 9.800826254 -0.451482227
6.464403926 8.71137309 -0.491271374
5.488091253 7.985278457 -0.532729204
7.643398176 11.95965242 -0.39596389
7.846119223 9.744807286 -0.450008442
6.486915243 8.685896499 -0.490954694
5.504042729 7.956086023 -0.531905765
7.65084585 11.89075173 -0.394458008
7.879753739 9.725348523 -0.450224121
6.521935799 8.677134178 -0.491588053
5.523290433 7.93178805 -0.531411643
7.654682723 11.81688548 -0.392784816
7.900712901 9.690283979 -0.449720879
6.549128489 8.65788066 -0.491633293
5.544160184 7.909899264 -0.531082267
7.669058944 11.75985372 -0.391669345
7.946252009 9.68531467 -0.450619509
6.576264809 8.638542436 -0.491678533
5.575308972 7.902643856 -0.531741077
7.71333029 11.74880455 -0.392087651
7.976565169 9.661661112 -0.45065548
6.61063465 8.628635267 -0.492266681
5.615714457 7.908296628 -0.533278162
7.777448366 11.76761516 -0.393509877
8.013832469 9.64636855 -0.45108681
6.654154899 8.630465133 -0.4935334
5.648659216 7.903215989 -0.53410166
7.873869604 11.83441296 -0.396549535
8.061335503 9.64320495 -0.452093293
6.689787689 8.621848617 -0.494212058
5.674045488 7.887469653 -0.534211451
8.005261908 11.95222208 -0.401318145
8.10181944 9.63142885 -0.45270439
6.715592782 8.60049689 -0.494166818
5.698217606 7.870025489 -0.534211452
8.040775442 11.92594839 -0.401262385
8.153927677 9.633225561 -0.453962495
6.746267726 8.585351834 -0.494483497
5.721159358 7.850892555 -0.53410166
8.077887169 11.90205052 -0.40129028
8.199643386 9.627184152 -0.454861154
6.766379212 8.556778248 -0.494031098
5.748171265 7.837328791 -0.534376139
8.119439041 11.88463976 -0.401541245
8.24084627 9.615641116 -0.455508192
6.78202456 8.522689717 -0.49326196
5.775153967 7.823673656 -0.534650619
8.166057634 11.87450002 -0.402043206
8.270307482 9.590312835 -0.455508192
6.829370449 8.528355246 -0.494800177
5.80091585 7.808323544 -0.534815307
8.20472623 11.85267799 -0.402154756
8.299036243 9.564140662 -0.455472221
6.866158616 8.520586511 -0.495569256
5.820060551 7.784092042 -0.534376139
8.22562106 11.80530626 -0.40140183
8.330969309 9.541645028 -0.455616017
6.92372727 8.538277216 -0.497831311
5.854720947 7.780561168 -0.535364324
8.258930672 11.77592295 -0.401262385
8.362181389 9.518294041 -0.455723872
6.946731844 8.513125195 -0.497605112
8.265619274 11.70888115 -0.399840159
8.393329537 9.494840175 -0.455831697
6.96330764 8.480192282 -0.496926513
8.303819042 11.68672709 -0.399951709
8.428397272 9.475765681 -0.456155201
6.980383578 8.448008142 -0.496293095
8.341378762 11.66363577 -0.400035364
8.458762419 9.451352622 -0.456227114
7.020958469 8.444219791 -0.497333672
8.390554102 11.65664934 -0.400676769
8.474343697 9.410504036 -0.455508192
7.060293537 8.438730211 -0.498283711
8.433900459 11.64137662 -0.401039285
8.511898575 9.39408868 -0.455975493
7.093227014 8.425435891 -0.49878135
8.495489521 11.65098545 -0.402266306
8.533272456 9.359806327 -0.455580076
7.130019492 8.416592492 -0.499550488
8.515817739 11.6039138 -0.401541245
8.580863791 9.354202959 -0.45658656
7.170712935 8.412164725 -0.500591007
8.578102744 11.61391592 -0.402796161
8.623077366 9.34252095 -0.457305481
7.199089149 8.393158267 -0.500771966
8.608326057 11.58032386 -0.402545166
8.655779941 9.320415371 -0.457521161
7.235901062 8.383888935 -0.501541045
8.654591969 11.5682669 -0.403047127
8.684333089 9.293815203 -0.45752116
7.271413556 8.372963188 -0.502219703
8.699061048 11.55363901 -0.403465432
8.717597399 9.272225716 -0.457772782
7.308899183 8.364156609 -0.503034022
8.751370177 11.54920417 -0.404246253
8.743942812 9.243258681 -0.457664957
7.351016766 8.360448493 -0.50416502
7.869655349 10.31967661 -0.362053615
8.79292942 9.238104967 -0.458743324
7.381927237 8.34384298 -0.50452694
7.884846802 10.27407389 -0.361300689
8.839201892 9.229850925 -0.459677925
7.409483607 8.323394269 -0.504662719
7.897388847 10.22530991 -0.360436184
8.88827915 9.224278673 -0.460756292
7.42965233 8.29467062 -0.504300741
7.899890525 10.16393851 -0.359125507
8.919319583 9.199836138 -0.460900088
7.4604154 8.277773591 -0.504662719
8.949596154 9.174575406 -0.461007913
7.505908442 8.277047153 -0.506019917
8.996601159 9.166332094 -0.461978456
7.5433868 8.267263761 -0.506834236
9.03100053 9.145087396 -0.462301989
9.078033258 9.136477982 -0.463272532
9.110260236 9.1128244 -0.463488211
9.15660164 9.103150773 -0.464422812
9.180221798 9.070801675 -0.464207133
9.235814894 9.069902882 -0.465609004
9.264313197 9.042223048 -0.465644976
9.28914087 9.010974591 -0.465501179
9.310987408 8.97688422 -0.465213617
9.337040675 8.946893712 -0.465141733
9.409313828 8.960936281 -0.467370381
9.452728864 8.947140163 -0.468161186
9.485956824 8.923575573 -0.468448748
9.530079629 8.910128533 -0.469275524
9.569084142 8.891732883 -0.46985065
9.674141965 8.824836745 -0.47100093
13.63072987 12.19380835 -0.333922831
13.65985592 12.14462552 -0.333722023
13.65958887 12.06955806 -0.332809267
13.68528381 12.01769824 -0.332535443
13.73554835 11.693588 -0.329359052
13.57977215 11.48929937 -0.324777005
13.61036501 11.44372214 -0.324667481
12.5896837 10.51976312 -0.299548415
13.12111319 10.89563164 -0.311396001
13.02492402 10.74841356 -0.308329133
13.09262773 10.73693379 -0.309150634
13.0704783 10.65186941 -0.307854501
13.08134044 10.59410009 -0.307343361
13.16051632 10.59152936 -0.308438686
13.23120941 10.58170301 -0.309333173
13.34971321 10.60948855 -0.311341253
13.55482319 10.70481037 -0.315357355
13.61513027 10.68477758 -0.315996287
13.63365418 10.63188966 -0.315667716
13.61878915 10.55326676 -0.314572392
13.647141 10.50838572 -0.314481137
13.62135005 10.42211513 -0.313148496
13.62142293 10.35607186 -0.31241828
13.62122035 10.29012578 -0.311688093
13.6327348 10.23328241 -0.3112317
13.63521335 10.16989006 -0.310574529
13.63984167 10.10836489 -0.309972105
13.67239947 10.06765641 -0.310008613
13.63221308 9.973709904 -0.308402178
13.67811411 9.94301 -0.308749018
13.68666944 9.885193196 -0.308256117
13.69662495 9.82858362 -0.307799754
13.75439312 9.806250871 -0.308420417
13.80481152 9.778455344 -0.30887681
13.99418904 9.848262525 -0.312436549
13.98172732 9.775491437 -0.311487285
14.02068506 9.738824407 -0.311688093
14.05790351 9.700874536 -0.311852393
14.06780798 9.644132359 -0.311414269
14.06427443 9.578415003 -0.310684053
14.09028116 9.532980227 -0.310611037
14.12029162 9.490264221 -0.310629276
14.16680373 9.458558215 -0.311012653
14.19325553 9.413392832 -0.310957877
14.22874743 9.374204904 -0.311103938
14.2557671 9.329412063 -0.3110674
42.00487282 29.55240212 0.445514424
14.29689662 9.293806731 -0.311341254
14.35810025 9.271051984 -0.312053201
14.42434811 9.251248664 -0.312874672
14.46531238 9.215009537 -0.313148496
14.49520473 9.17165675 -0.313185004
31.94793345 16.97363271 0.0246249
14.53089376 9.131930594 -0.313349304
44.59256125 30.16136424 0.466991706
31.70796253 16.72160186 0.024400276
14.57326065 9.09630789 -0.313659636
14.61214687 9.058402846 -0.313896952
14.64838213 9.018773336 -0.314079521
14.67512953 8.973268037 -0.314061252
44.64775782 28.82099782 0.460980488
14.89069939 8.855879885 -0.316324887
44.69640563 28.65851823 0.460572822
15.00819399 8.8635389 -0.318241683
15.00254279 8.798233002 -0.317547975
15.00959195 8.740592497 -0.317128119
13.53520663 8.26250359 -0.442395342
13.54852498 8.213684142 -0.442004931
13.54625578 8.155580449 -0.441112531
13.54890684 8.100645596 -0.4403875
13.54962792 8.044751109 -0.439606649
13.56046775 7.995019995 -0.439160478
13.55819099 7.937723143 -0.438295973
13.54359113 7.873482344 -0.437041086
13.53305323 7.81190491 -0.435925615
13.53874428 7.759910708 -0.43534
13.55379972 7.713393679 -0.43506111
13.5599939 7.6619397 -0.434503389
13.56774474 7.611498743 -0.434001428
13.52204242 7.531412077 -0.431798381
13.54595956 7.490375721 -0.431826246
52.98298087 29.12771549 0.524475498
13.54258854 7.434350679 -0.430989665
13.5425118 7.380330932 -0.430264604
13.56157367 7.336845674 -0.430153054
13.56112271 7.282908341 -0.429427994
13.53753303 7.216816615 -0.427977872
13.54635713 7.168236925 -0.427559597
13.54527666 7.114558123 -0.426834536
13.58831346 7.084059028 -0.427503807
13.61442189 7.044634194 -0.427643252
13.6172972 6.993242828 -0.427057636
58.91481281 30.07334026 0.573788149
13.74556001 7.005903733 -0.43040402
13.47404408 5.104925833 -0.518269947
59.13792804 29.95887847 0.575063271
13.84726805 7.004307371 -0.432913852
13.47093018 5.056539945 -0.517551055
59.23134864 29.77820371 0.575080616
13.88745297 6.971208926 -0.433499468
13.47888595 5.012401261 -0.517263462
25.93627485 10.65570494 -0.251552228
13.94098582 6.944615647 -0.434503389
13.47075645 4.962388912 -0.516364803
25.94939675 10.56816299 -0.251363847
13.95326493 6.897383101 -0.434224528
13.48779575 4.921723062 -0.516436687
25.96778806 10.48288655 -0.25122926
14.00218167 6.868188979 -0.435089005
13.48309451 4.873186541 -0.515681853
25.92462673 10.37308022 -0.25050262
14.03127564 6.82913591 -0.435339999
13.49327763 4.83011363 -0.515502145
25.93959696 10.28686069 -0.250341151
14.05216165 6.786056101 -0.43534
13.51933599 4.792701246 -0.515933445
25.93008579 10.19113642 -0.249946449
14.07561909 6.74420857 -0.435423655
13.53963358 4.753188387 -0.516149153
25.86339171 10.07343045 -0.249004487
14.08811817 6.69713122 -0.43517266
13.55698374 4.71261122 -0.516256978
25.92496051 10.00591689 -0.249300543
14.09955804 6.649613885 -0.434893799
13.59405722 4.67880227 -0.517119696
25.90883668 9.90847372 -0.248851988
14.10812195 6.600818748 -0.434531284
13.63010397 4.644487851 -0.517946472
25.9222819 9.82256193 -0.248690519
14.11107859 6.549508417 -0.434001428
13.64618307 4.603288359 -0.518018355
25.90548742 9.725414451 -0.248241965
14.12838167 6.504931617 -0.433917773
13.69910586 4.574378365 -0.51949214
25.94176243 9.648331818 -0.248304773
14.15281856 6.463631762 -0.434057188
13.75577411 4.546441089 -0.52110969
25.96467396 9.566278178 -0.248241965
14.16438786 6.416468825 -0.433806223
13.79910274 4.513849372 -0.522224
25.87742027 9.444064843 -0.247129578
14.18218307 6.372163677 -0.433750433
13.84521268 4.481957615 -0.523446193
25.90251075 9.363270068 -0.247093696
14.18340472 6.320485774 -0.433192712
13.89030449 4.449520787 -0.524632385
25.90192963 9.273309057 -0.246815596
14.17529976 6.264819702 -0.432356102
13.90674735 4.407790834 -0.524740269
25.90575392 9.185111863 -0.246582363
14.16515618 6.208460403 -0.431463731
13.93546249 4.369888885 -0.525315394
25.9338124 9.10559072 -0.246582363
14.18046938 6.163379345 -0.431352181
13.9965276 4.341919869 -0.527112712
25.9455682 9.020401402 -0.246429849
14.19104982 6.116284216 -0.431101215
14.03653312 4.307166838 -0.528119196
25.96177517 8.936853821 -0.246322203
14.20515158 6.070753671 -0.43096177
14.0745449 4.271629343 -0.529053797
25.96256829 8.848130155 -0.246071015
14.21910777 6.025194591 -0.430822325
14.10098424 4.232451132 -0.529557039
25.98864465 8.768116853 -0.246062044
14.24029029 5.982704033 -0.43090598
26.00878286 8.686126082 -0.245999251
14.25581024 5.93783413 -0.430822325
26.08847746 8.623866328 -0.246501628
14.28135175 5.89712231 -0.431045425
26.12051449 8.545652997 -0.246555451
14.33360508 5.867291022 -0.432077241
26.15897681 8.469480965 -0.246672068
14.33486579 5.816523305 -0.431575281
26.2067407 8.396202824 -0.246878404
