x	y	z
-0.300403923 7.348662082 -1.018600348
0.46429445 6.711893584 -0.987376343
1.225314248 17.24209637 -1.253905543
0.323971842 9.236176018 -1.099243647
-0.011201161 8.11415365 -1.043622617
-0.278193943 7.358457947 -1.019835
0.483957104 6.697609143 -0.985488666
1.277837723 17.23328332 -1.253543744
0.352382211 9.237123524 -1.099479919
0.013722891 8.132002689 -1.045918826
-0.25492949 7.339477611 -1.017091278
0.503759452 6.686226697 -0.984036695
1.33093303 17.23226511 -1.253760824
0.379697219 9.211195027 -1.096527106
0.038558261 8.108118433 -1.042857291
-0.232348408 7.338245121 -1.01681686
0.523187081 6.670840687 -0.982003821
1.383794675 17.22810117 -1.253760824
0.408218624 9.215939051 -1.097235805
0.063348083 8.097052005 -1.041453961
-0.209777265 7.33694298 -1.016542557
0.543891669 6.672162537 -0.982439412
1.437223511 17.23073071 -1.254267225
0.435034265 9.183894582 -1.093574411
0.088210798 8.098803408 -1.041709187
-0.187696485 7.354386228 -1.018874651
0.564692634 6.674406075 -0.983020317
1.492486619 17.25406401 -1.256293068
0.162746955 11.91106919 -1.090592245
0.462707743 9.172599651 -1.092393286
0.112918713 8.088577107 -1.040433528
-0.164732445 7.337101871 -1.016405348
0.58525321 6.673627381 -0.983165512
0.490740559 9.169153906 -1.092157132
0.137953117 8.101084942 -1.04209185
-0.142221759 7.33757299 -1.016405349
0.606082667 6.675742095 -0.983746301
0.23433052 11.83417736 -1.083663205
0.517914905 9.15075118 -1.09014929
0.162686667 8.094673278 -1.041326406
-0.119822843 7.344907671 -1.017365698
0.626375748 6.671881047 -0.983455907
0.545690799 9.144162064 -1.089558725
0.188944277 8.155613401 -1.049235585
-0.097485202 7.360097258 -1.019423371
0.645791341 6.659095474 -0.981858623
0.371635409 6.167767824 -0.965941159
0.572933614 9.129561575 -1.08802331
0.213392144 8.133182809 -1.04642916
-0.074994999 7.369276281 -1.020658139
0.665331404 6.648222456 -0.98055185
0.599635306 9.107943443 -1.08566106
0.238837337 8.149343094 -1.048597696
-0.052125504 7.332822432 -1.015582209
0.685521596 6.64418152 -0.980261455
0.627233902 9.101107708 -1.085070497
0.26345289 8.136677111 -1.047066931
-0.029760549 7.365635347 -1.0201093
0.70548418 6.6381116 -0.97968055
0.655152732 9.099140925 -1.085070498
0.287606432 8.113031922 -1.044132949
-0.007137913 7.339937927 -1.016542557
0.723802301 6.617228693 -0.976921748
0.682396282 9.08817667 -1.084007509
0.311655568 8.090307474 -1.041326407
0.015438852 7.367660542 -1.02038372
0.742773067 6.603178821 -0.975179326
0.71360293 9.128609229 -1.0890863
0.334990932 8.053638846 -1.03673399
0.037658847 7.293288474 -1.010094767
0.764050389 6.609714443 -0.976486157
0.738147438 9.08381808 -1.084007509
0.358768113 8.031765014 -1.034055117
0.060034163 7.293138939 -1.010094768
0.785724661 6.619129641 -0.978228581
0.503190985 6.148517887 -0.964396624
0.765929247 9.080520792 -1.083889489
0.383123731 8.024682161 -1.033289792
0.082408914 7.292920231 -1.010094767
0.806985263 6.624545086 -0.979390157
1.260350772 14.5103296 -1.196178309
0.794130314 9.082085777 -1.084361917
0.407388937 8.016535453 -1.032396796
0.104967892 7.30550886 -1.011878256
0.82840917 6.630873632 -0.980697046
1.298522482 14.43591759 -1.190366857
0.821184233 9.070706031 -1.083298928
0.431821284 8.012276367 -1.032014133
0.127190422 7.294257982 -1.010369186
0.849376859 6.633208143 -0.981423032
1.354993182 14.56285719 -1.201171271
0.846787321 9.044415076 -1.08046425
0.456795483 8.017845338 -1.032907012
0.149283978 7.279968667 -1.008448604
0.871138717 6.641361932 -0.983020316
1.407676734 14.64196571 -1.208046787
0.870898459 9.004216177 -1.075976139
0.481035017 8.010466718 -1.032141689
0.171571217 7.277496297 -1.008174187
0.891114945 6.635716483 -0.982584609
1.440485252 14.51558933 -1.197979084
0.897236739 8.988656849 -1.074440723
0.505795966 8.011922427 -1.03252435
0.193422541 7.259111839 -1.005704884
0.909448473 6.618248289 -0.980406653
1.45883418 14.25530417 -1.176861398
0.924199339 8.979934854 -1.073732024
0.530963566 8.019239863 -1.033672455
0.216457233 7.284227296 -1.009271745
0.927683189 6.600730456 -0.978228581
1.498172788 14.20913269 -1.17342364
0.94902311 8.951383549 -1.070661194
0.554809585 8.006688891 -1.032269241
0.239193422 7.29540906 -1.010917907
0.947929578 6.597853385 -0.978228581
1.537672118 14.16681831 -1.170313232
0.975834783 8.942506986 -1.069952495
0.578869921 7.998024586 -1.031376246
0.261645283 7.296620605 -1.011192326
0.962274949 6.554778893 -0.972275269
1.572613037 14.08576613 -1.164010636
1.00315462 8.938484112 -1.069834476
0.603330185 7.995222006 -1.031248692
0.283760041 7.288855179 -1.010231977
0.979005839 6.529291061 -0.968935621
1.61218432 14.0491909 -1.161391489
1.030800351 8.937337006 -1.07007063
0.62723498 7.98542276 -1.03022814
0.305746464 7.279043136 -1.008997326
1.0012785 6.54092686 -0.971113634
1.656212283 14.05209633 -1.162046305
1.058682042 8.938077659 -1.070543058
0.651085405 7.975552431 -1.02920759
0.32812142 7.279060581 -1.009134536
1.020424752 6.531958953 -0.970242452
1.695605197 14.0162773 -1.159508817
1.084780643 8.923944294 -1.069243914
0.676639506 7.986365832 -1.03086603
0.349784758 7.264167771 -1.007213954
1.04232829 6.54052239 -0.971984875
1.74338501 14.04958199 -1.162701003
1.111048212 8.911705364 -1.068180924
0.700357246 7.975359607 -1.029717924
0.372069246 7.263060766 -1.007213955
1.063659129 6.54510657 -0.97314651
1.799559835 14.14699024 -1.171213619
1.1369991 8.897420285 -1.066881664
0.722218006 7.944528841 -1.026018503
0.394296553 7.260895627 -1.007076744
1.081147003 6.526195024 -0.970823241
1.851325404 14.20564065 -1.17653393
1.157845979 8.844659654 -1.060976272
0.74528851 7.928450904 -1.02423251
0.416968021 7.266574424 -1.008037094
1.098858149 6.509188867 -0.968790423
1.903072439 14.26114343 -1.181608788
1.182601198 8.823350685 -1.058850294
0.773826679 7.969563349 -1.029845479
0.439857395 7.275148542 -1.009408955
1.113624577 6.475559161 -0.96428914
1.951536042 14.28979977 -1.184473625
1.208720717 8.812794828 -1.058023461
0.793823637 7.92274174 -1.024104956
0.461986715 7.270798908 -1.008997326
1.136387567 6.488679945 -0.966757607
1.953863216 13.98663987 -1.159836284
1.2358903 8.810028066 -1.058141596
0.818432286 7.92322854 -1.024487618
0.48462026 7.274289396 -1.009683257
1.154378847 6.474448342 -0.96516038
3.075156918 17.06152866 -1.25759531
1.993946075 13.96084705 -1.158199183
1.263900027 8.813075338 -1.05896843
0.843680937 7.929557033 -1.025635723
0.507279586 7.2777088 -1.010369186
1.17459005 6.472823305 -0.965450774
3.128386232 17.0569206 -1.257957111
2.034896856 13.94184388 -1.157135122
1.291795991 8.815051112 -1.059677011
0.868328443 7.929889261 -1.026018503
0.530252084 7.285009623 -1.011603837
1.198035769 6.488648544 -0.968354832
3.184359998 17.06685173 -1.259404073
2.078395105 13.94046409 -1.157544367
1.319422148 8.814975014 -1.060149438
0.892319914 7.924230945 -1.025635723
0.552974344 7.288287335 -1.012289768
1.218850195 6.489804308 -0.969080817
3.241539939 17.08247769 -1.261285195
2.124753869 13.95766899 -1.159508817
1.345109812 8.802051448 -1.059086449
0.916056909 7.916529344 -1.024997951
0.576423469 7.300380777 -1.014210348
1.232629748 6.453964126 -0.964289141
3.298845557 17.0979162 -1.263166318
2.171696731 13.97767432 -1.161718837
1.365834051 8.757656108 -1.054244047
0.932265048 7.845724026 -1.016195778
0.598413045 7.293641976 -1.013524418
1.250727082 6.441410705 -0.962982309
3.352245426 17.09260795 -1.263528118
2.217065772 13.98669566 -1.16302847
1.391915652 8.7485214 -1.053653484
0.955370562 7.83495056 -1.015175227
0.619610413 7.277954335 -1.011603838
1.269525392 6.432689567 -0.962256323
3.40232964 17.07050498 -1.262659916
2.261874511 13.99163476 -1.164010637
1.416204683 8.72852668 -1.05176366
0.981864828 7.851665762 -1.017726662
0.639063151 7.243457338 -1.007076744
1.287892797 6.421974234 -0.961239887
3.458050585 17.07660544 -1.2638898
2.314189607 14.04166593 -1.168758028
1.441518308 8.715323505 -1.050700671
1.002039984 7.818119425 -1.013772015
0.659571253 7.222720394 -1.004470234
1.306798942 6.414114618 -0.960659098
3.510625397 17.06689155 -1.263962159
2.358578704 14.042363 -1.169412844
1.467589615 8.70694349 -1.050228245
1.033896517 7.874995201 -1.021553638
0.680982254 7.21277376 -1.003372792
1.325869635 6.407168561 -0.960223507
3.567660114 17.07849556 -1.265626201
2.407868728 14.07140848 -1.172441356
1.493118873 8.69554934 -1.049401528
1.049992215 7.811823841 -1.013772015
0.703107569 7.210650556 -1.003372792
1.344706369 6.399197718 -0.95964266
3.62707549 17.10064287 -1.268086204
2.486790604 14.26916033 -1.189548365
1.5185921 8.684080278 -1.04857481
1.08071055 7.857695083 -1.020150426
0.725424529 7.210430369 -1.003647094
1.361442443 6.381495519 -0.957609844
3.687709956 17.12746266 -1.270907888
2.549535547 14.36842762 -1.198470227
1.544182992 8.673514772 -1.047866112
1.105503301 7.859253329 -1.020788197
0.747338047 7.206200421 -1.003372792
1.380595419 6.375354649 -0.95731945
3.738961274 17.11022025 -1.270473727
1.570077517 8.664828431 -1.047393686
1.130315795 7.860732852 -1.021426084
0.767233614 7.183189724 -1.000491861
1.404395589 6.390415801 -0.960223507
3.792300727 17.10256364 -1.270763167
1.596473328 8.658994002 -1.04727555
1.154426824 7.857227952 -1.021426083
0.787644375 7.166033117 -0.998434071
1.42054914 6.370625813 -0.957900237
3.83380801 17.04219693 -1.267145643
1.618272206 8.628680133 -1.044204719
1.177643869 7.84776445 -1.020660642
0.809959477 7.166535657 -0.998845583
1.443798215 6.382643181 -0.960368704
3.884077722 17.02160362 -1.266494522
1.642690608 8.612944553 -1.042905457
1.20021298 7.834310729 -1.019384983
0.833313408 7.175824357 -1.000491862
1.46558573 6.387826927 -0.961820732
3.934257147 17.000861 -1.265843282
1.667405748 8.599090996 -1.041842468
1.221331882 7.811973008 -1.01696122
0.855090062 7.171266619 -1.000217443
1.483382672 6.375591266 -0.960659097
3.998472591 17.04017453 -1.269677887
1.691475394 8.582243326 -1.040425187
1.24404328 7.800353586 -1.015940669
0.879854028 7.191223515 -1.003372792
1.501572727 6.365232842 -0.959787858
4.046346197 17.00939056 -1.268303283
1.71760239 8.576040035 -1.040307051
1.266694818 7.788668313 -1.014920119
0.902035555 7.189473309 -1.003509885
1.516951787 6.343275284 -0.957174253
4.098745309 16.99786646 -1.268375525
1.741133285 8.55710752 -1.038653617
1.288313154 7.771046846 -1.013134243
0.921435388 7.166040322 -1.000629071
1.536172453 6.337629777 -0.957029056
4.151111378 16.9861816 -1.268447886
1.768382834 8.556588016 -1.039244063
1.310991848 7.760212153 -1.012241247
0.944062871 7.168089946 -1.001315001
1.555844775 6.333847676 -0.957174252
1.794829672 8.552094017 -1.039362199
1.333111447 7.746379058 -1.010965589
0.965255675 7.159270023 -1.000491862
1.575986399 6.331925166 -0.957609844
1.816506041 8.525180507 -1.036763793
1.355843422 7.736391127 -1.010200147
0.986809334 7.153331106 -1.00008035
1.595163125 6.326101099 -0.957464647
4.32004765 16.99752194 -1.272210131
1.842022674 8.516656162 -1.036409503
1.378700926 7.727312951 -1.009562376
1.009304339 7.154193272 -1.000629071
1.613094692 6.315425616 -0.956593407
1.864523491 8.494476571 -1.034401661
1.40098385 7.715239708 -1.008541825
1.029268967 7.137337553 -0.99870849
1.627754429 6.292247384 -0.953834604
1.888200844 8.478054727 -1.033102401
1.424106733 7.707979131 -1.008159163
1.050006031 7.126306354 -0.997610931
1.647301857 6.288180709 -0.953979801
1.911795055 8.461567495 -1.031803257
1.443168053 7.679204561 -1.004969957
1.071422195 7.120113099 -0.997199421
1.667600661 6.286923001 -0.95456059
1.937967594 8.456629674 -1.031921392
1.464486505 7.663050861 -1.003439191
1.093110844 7.115813316 -0.997062211
1.687650672 6.284643828 -0.954996181
1.959632191 8.432266873 -1.029677277
1.486854614 7.652679713 -1.002673748
1.117391193 7.128083576 -0.99925721
1.705626089 6.2746627 -0.954270195
1.983670803 8.418483591 -1.028732425
1.510325679 7.648082051 -1.002673748
1.136752113 7.10897218 -0.997062211
1.727230488 6.277986199 -0.955577027
2.008104911 8.406563248 -1.028023727
1.534953346 7.649247387 -1.003439191
1.15839742 7.104473409 -0.996925001
1.741440701 6.254547607 -0.952818167
2.033418874 8.398432263 -1.027787571
1.559206136 7.648389446 -1.003949407
1.179051371 7.094046072 -0.995964769
1.760889467 6.250128056 -0.952963364
2.058938916 8.391189558 -1.027669435
1.583468146 7.647454675 -1.00445974
1.20031376 7.087465805 -0.995553142
1.777344072 6.235181286 -0.951511336
2.085391755 8.387724764 -1.028023726
1.605086022 7.633825486 -1.003311636
1.221547052 7.080821592 -0.99514163
1.796190875 6.228748356 -0.951366138
2.112570437 8.387065133 -1.028732425
1.628291694 7.62789525 -1.003183965
1.24326493 7.077040256 -0.995141629
1.813075404 6.215609577 -0.950204503
2.138291531 8.380543672 -1.028732424
1.648955641 7.610262415 -1.001525644
1.265319936 7.075142851 -0.995416048
1.832136133 6.210018086 -0.950204503
2.164738003 8.376828326 -1.029086714
1.66803583 7.585794058 -0.998974327
1.286133269 7.066355094 -0.994730118
1.84948231 6.198679187 -0.949333321
2.182885714 8.341328372 -1.025543457
1.692596728 7.586448757 -0.999739768
1.307265378 7.059454127 -0.99431849
1.86991975 6.197712357 -0.950059307
2.887912361 9.483848681 -1.085037242
2.199564169 8.300996553 -1.021409636
1.716082546 7.582187678 -0.999867322
1.328183997 7.051516462 -0.993769769
1.886615728 6.184375325 -0.948897671
2.909682679 9.451192428 -1.082317245
2.223991823 8.290373044 -1.02093721
1.742443046 7.590420622 -1.001653198
1.349438808 7.045462724 -0.993495467
2.935415449 9.431780239 -1.081120502
2.255661329 8.306510037 -1.02377177
1.770219471 7.604359333 -1.004204515
1.371615608 7.044206388 -0.993906979
2.968215844 9.4350573 -1.082534919
2.27666078 8.283273077 -1.021763927
1.793541003 7.598892612 -1.004204516
1.392066646 7.034135181 -0.99308384
2.972448152 9.348225876 -1.073613535
2.297539008 8.259985971 -1.019756085
1.812691247 7.575991228 -1.001908306
1.411883044 7.021091314 -0.991849189
2.998376975 9.330544806 -1.072634349
2.322331488 8.250986258 -1.019519812
1.833587878 7.560755408 -1.000632647
1.429848041 6.999257371 -0.989379886
3.032822063 9.339265639 -1.074701439
2.346002357 8.238093086 -1.018811232
1.856775326 7.555094885 -1.000632648
1.449302363 6.98513907 -0.988008026
3.043484616 9.275135672 -1.068391215
2.362193934 8.199368135 -1.014913565
1.880184954 7.550325024 -1.000760202
1.471134118 6.982598314 -0.988282328
3.058161624 9.224238314 -1.063604128
2.389838343 8.200662611 -1.015976555
1.902612397 7.541635968 -1.000377539
1.49337827 6.981926697 -0.988831166
3.089603948 9.224237982 -1.064692149
2.407686998 8.168527382 -1.012905723
1.925495209 7.534802687 -1.000249985
1.514791467 6.977312051 -0.988831166
3.115340174 9.207183468 -1.063821685
2.437558785 8.177280375 -1.014913567
1.949845233 7.533660862 -1.000887873
1.535124806 6.967794979 -0.988145235
3.14260821 9.194760372 -1.06349529
2.461488386 8.165959868 -1.014441138
1.966662535 7.50365744 -0.997698667
1.555413982 6.95821919 -0.987459305
3.162044409 9.159705053 -1.060557853
2.486529661 8.15836957 -1.014441138
1.988656618 7.493754058 -0.997188334
1.576973279 6.95438064 -0.987596398
3.174749799 9.105844601 -1.05544437
2.510962663 8.1488046 -1.014204983
2.011380383 7.486659646 -0.997060779
1.598301618 6.949509672 -0.987596398
3.180882208 9.034177515 -1.048263681
2.53713248 8.14485525 -1.014677411
2.032517601 7.473754418 -0.996167901
1.618264969 6.93878546 -0.986773375
3.204587488 9.0131366 -1.046958101
2.555845697 8.117142628 -1.012197024
2.053068431 7.458876915 -0.995019796
1.640684944 6.938607864 -0.987459305
3.211399374 8.945255386 -1.040212643
2.573208222 8.085608062 -1.00924433
2.07700685 7.456365147 -0.995530013
1.663811677 6.941247828 -0.988556747
3.237134299 8.930687796 -1.03966869
2.595266105 8.069167683 -1.008181341
2.098796538 7.446139027 -0.995019795
1.683930128 6.931297791 -0.987870816
3.261443249 8.912312548 -1.038689505
2.622465196 8.068721758 -1.009126193
2.118366932 7.428219532 -0.993488912
1.703292767 6.918404643 -0.986773376
3.286359214 8.89573725 -1.037927877
2.651235191 8.072903438 -1.01066161
2.141421479 7.422638593 -0.993616466
1.719954817 6.894885584 -0.984166864
3.310509394 8.877231121 -1.036948693
2.655975645 8.004412655 -1.003102666
2.163072366 7.412225302 -0.993106249
1.737944955 6.877091834 -0.982383376
3.327222831 8.83912258 -1.033684861
2.678942218 7.991519552 -1.002512104
2.181029353 7.389382685 -0.990937594
1.759281046 6.872687121 -0.982520585
3.354678233 8.829802012 -1.03379358
2.703447269 7.983262637 -1.002512103
2.188086479 7.330385234 -0.983921413
1.784583699 6.88355781 -0.984852794
3.379260714 8.812971616 -1.03303207
2.727605397 7.973991386 -1.002393967
2.218017163 7.348324895 -0.987238172
1.80443621 6.873259714 -0.984166863
3.399107752 8.784021331 -1.030856143
2.751083768 7.962770244 -1.002039677
2.235918845 7.326307418 -0.985197071
1.826532361 6.871520767 -0.984715584
3.407238211 8.725400686 -1.02519859
2.767648701 7.931791248 -0.999205001
2.257800379 7.31751779 -0.984941963
1.841170419 6.841971644 -0.981285933
3.42998258 8.704733769 -1.024001848
2.796590398 7.936374186 -1.000858551
2.278762983 7.305822224 -0.984304192
1.863193978 6.840113806 -0.981834654
3.451897759 8.682160812 -1.02258743
2.824920307 7.938983385 -1.002275948
2.296692609 7.28460794 -0.982390645
1.881801009 6.825771335 -0.980600004
3.474446938 8.661381112 -1.021390688
2.84892768 7.929344912 -1.002157812
2.32294537 7.289812724 -0.984048967
1.901668572 6.816149471 -0.980051283
3.494663711 8.63501609 -1.019541155
2.867146009 7.903765184 -1.000031835
2.344995235 7.281707457 -0.983921412
1.91449768 6.781684307 -0.975935702
3.520387527 8.622412937 -1.019323597
2.888307375 7.886539056 -0.998968845
2.371621259 7.287683093 -0.985707405
1.929853807 6.756729575 -0.973191981
3.530924372 8.572967783 -1.014754068
2.892172913 7.822689581 -0.992000348
2.387462138 7.260586635 -0.983028534
1.952498778 6.75743861 -0.974152272
3.564455553 8.57953608 -1.016821157
2.91095106 7.799824625 -0.990228777
2.409100601 7.251345244 -0.982773308
1.975722176 6.759973369 -0.975386981
3.576929193 8.535555212 -1.012904535
2.935916903 7.793645034 -0.990583068
2.419659237 7.20912951 -0.978053394
1.996171258 6.752930287 -0.975249771
0.957857658 2.839212194 -0.851238976
3.605808007 8.530950942 -1.013666046
2.957343437 7.778104059 -0.989756351
2.444631442 7.210126086 -0.979201499
2.016312219 6.744876222 -0.974975411
3.632743296 8.521676871 -1.01388372
2.976567486 7.756942483 -0.988220936
2.464169345 7.195085569 -0.978180948
2.035849193 6.734866079 -0.974426691
3.652195654 8.494966156 -1.01203407
3.003220202 7.755181861 -0.989165789
2.487204587 7.190303622 -0.978563669
2.054185655 6.721010153 -0.973329191
3.68021781 8.488281982 -1.01257814
3.011818463 7.707086371 -0.984205134
2.507616964 7.1779575 -0.97792584
2.075380687 6.716569284 -0.973603552
3.695490372 8.452359442 -1.009640586
3.044191857 7.719980614 -0.987039811
2.530616649 7.173036576 -0.978308502
2.092137732 6.697878996 -0.971820121
3.725414559 8.450078095 -1.010728608
3.069330477 7.714295247 -0.987512237
2.555939944 7.174581934 -0.979584219
2.105817212 6.669703367 -0.968664889
3.742437768 8.418625135 -1.008335006
3.092243263 7.702999287 -0.987275965
2.57928198 7.170439941 -0.980094436
2.123258402 6.653774727 -0.967293028
5.540032212 17.21803486 -1.167438265
3.762149475 8.393497273 -1.006703031
3.104678552 7.665864821 -0.983732707
2.593481371 7.141051217 -0.977160398
2.145486033 6.65288591 -0.968116168
5.600544591 17.22468406 -1.169048545
3.78010461 8.364703814 -1.00463594
3.119544093 7.635161327 -0.981016225
2.608890264 7.115367879 -0.974736634
2.168035239 6.652864838 -0.969076459
5.660215305 17.22827713 -1.170465585
3.804100663 8.349449039 -1.004200708
3.130845088 7.596175994 -0.977236694
2.632773276 7.112911639 -0.975502077
2.18378876 6.632069299 -0.967018668
5.719331902 17.22977345 -1.171753761
3.827208947 8.332318712 -1.003547918
3.153372794 7.584701169 -0.977000481
2.647293117 7.085289727 -0.972823146
2.200060327 6.613119495 -0.965235238
5.776924496 17.2263387 -1.172719953
3.843982798 8.301595031 -1.001263153
3.172019111 7.564002269 -0.975583201
2.678117707 7.101263484 -0.976139906
2.218445436 6.600705118 -0.964412157
5.831668427 17.21420397 -1.173106429
3.863126881 8.276251348 -0.999631178
3.208749302 7.586244802 -0.979717022
2.690717833 7.068913015 -0.972823147
2.238048601 6.591992321 -0.964137797
5.887037951 17.20378527 -1.173621652
3.885537415 8.258064355 -0.998869669
3.225384689 7.560837336 -0.97770918
2.713103633 7.062476139 -0.973078313
2.257619542 6.58322077 -0.963863377
5.94435438 17.19884773 -1.174523469
6.927062366 14.63154611 -1.174319992
3.910002523 8.244308449 -0.998651994
3.238755008 7.528102173 -0.974756425
2.739418839 7.06614141 -0.974736635
2.278454322 6.578135538 -0.964137796
6.003998235 17.20031639 -1.175876019
6.885151066 14.42839595 -1.159705171
3.924559079 8.209852403 -0.995932114
3.266973637 7.529972846 -0.976291841
2.753134841 7.037383061 -0.971930208
2.298297979 6.570179636 -0.964000588
6.058398769 17.18651996 -1.176198122
6.936301348 14.42158666 -1.160862813
3.941529991 8.180758225 -0.993864906
3.29841839 7.539019297 -0.978772111
2.771799013 7.021523033 -0.970909658
2.316134611 6.556559753 -0.963040297
6.121806752 17.19793619 -1.17825925
6.948319166 14.33382408 -1.155508885
3.962267332 8.159684761 -0.992777
3.310309565 7.503426015 -0.975465066
2.79149248 7.008378938 -0.970271828
2.337570161 6.55315504 -0.963589018
6.181966045 17.199735 -1.179676291
3.983786818 8.140347294 -0.991906536
3.330892617 7.487791081 -0.974756426
2.804474504 6.978615032 -0.96733779
2.354642885 6.537565117 -0.962354367
1.120198115 2.775018871 -0.850145888
6.237088025 17.18725481 -1.180127141
4.011820044 8.134327241 -0.992668163
3.353849217 7.47753663 -0.974756426
2.821772187 6.959867365 -0.965934577
2.374350364 6.529379408 -0.962217157
6.295624164 17.18396745 -1.181222078
4.032775245 8.113969952 -0.991688979
3.382093088 7.478974072 -0.976291841
2.84311159 6.951177491 -0.965934577
2.394712307 6.522994118 -0.962354366
6.356968405 17.18797131 -1.182832357
4.05586873 8.098003683 -0.991253863
3.409141628 7.477598022 -0.977472907
2.861775994 6.936004403 -0.965041581
2.408173226 6.497969148 -0.959747855
6.412462819 17.17586702 -1.183347699
4.076663058 8.07753542 -0.990274678
3.405525827 7.409359236 -0.969913906
2.887996177 6.93909595 -0.966699961
2.431915006 6.500755584 -0.961256866
6.475332491 17.18319421 -1.18521559
4.090610638 8.043724597 -0.987663518
3.442017628 7.428608941 -0.973811572
2.901209259 6.910998394 -0.964021089
2.444149524 6.47287698 -0.958238785
6.5507244 17.22294193 -1.189337847
4.111189274 8.023174913 -0.986684333
3.440839163 7.366731324 -0.967079289
2.932066092 6.924898133 -0.967210236
2.458352442 6.450538148 -0.956043843
6.605678615 17.20835251 -1.189724323
4.142625177 8.023773254 -0.988316307
3.458347827 7.345359431 -0.965662009
2.947844451 6.90310027 -0.965424302
2.474930509 6.434645076 -0.954809193
6.671419393 17.22150488 -1.192043063
4.153919164 7.985451488 -0.985161195
3.482143947 7.337406051 -0.966016299
2.974109009 6.905866055 -0.967082682
2.494660252 6.427021667 -0.954809192
6.72712946 17.20839247 -1.192558404
4.174245582 7.96474628 -0.984182011
3.499496687 7.315938944 -0.96459902
2.990145491 6.884882818 -0.965424302
2.516895095 6.425794423 -0.955769484
6.78684976 17.2053102 -1.193782207
4.191699222 7.938716048 -0.982550035
3.520631357 7.302484916 -0.964244671
3.000113101 6.850238054 -0.961852434
2.536233183 6.417121239 -0.955632274
6.845876304 17.20016932 -1.194877144
4.21043288 7.915287723 -0.981244456
3.542150485 7.289862804 -0.964008457
3.018310531 6.834650415 -0.960959438
2.552606572 6.401029293 -0.954397624
1.359972776 2.779467852 -0.846342731
6.903448063 17.19112539 -1.195714471
4.230470865 7.894447004 -0.98026527
3.564498968 7.278961428 -0.964008457
3.039668054 6.826264296 -0.96108705
2.57371142 6.396843363 -0.954946343
6.979014748 17.22628368 -1.19964349
4.251365435 7.875307924 -0.979503702
3.589450409 7.273334175 -0.964717097
3.061409043 6.818716307 -0.961342159
2.593697177 6.389835376 -0.955083554
7.039382301 17.22326578 -1.200931666
4.278356078 7.867467307 -0.980156492
3.60290402 7.244505283 -0.962354963
3.083132013 6.811099022 -0.961597267
2.611411807 6.377264473 -0.954397623
7.092189181 17.20158768 -1.200931665
4.295309025 7.841227248 -0.978524517
3.624223204 7.231642156 -0.962118692
3.100307723 6.793487553 -0.960449222
2.626426637 6.358236582 -0.952751402
7.15221067 17.19725631 -1.202155468
4.313102348 7.816697886 -0.977110158
3.638335149 7.204534293 -0.959992772
3.114916961 6.770428064 -0.958535674
2.642873227 6.342833947 -0.951653902
1.561505025 2.8062704 -0.845925444
7.208411798 17.18351349 -1.202735182
4.332234355 7.794739904 -0.976022136
3.664474276 7.201303395 -0.961055761
3.131083418 6.750942312 -0.957132462
2.662320379 6.334696261 -0.951653903
7.267706718 17.17694168 -1.20383012
4.363411476 7.794422972 -0.977654111
3.684284975 7.185608748 -0.960465198
3.149679717 6.736812231 -0.956494632
2.679809461 6.32193836 -0.950967972
7.339170597 17.19862091 -1.206921932
4.36240373 7.736838645 -0.972105455
3.707680223 7.176918655 -0.96081949
3.169910485 6.726220123 -0.956367078
2.69490918 6.30366808 -0.949458961
7.390717536 17.17327385 -1.206728693
4.384646773 7.72082525 -0.97177906
3.726930255 7.160224666 -0.960110849
3.182870806 6.700337588 -0.954070869
2.711490512 6.289003494 -0.94849867
7.452507495 17.17157348 -1.208210108
4.410781024 7.711651399 -0.972323071
3.74519078 7.141721846 -0.959165997
3.202555602 6.688751899 -0.953815702
2.727217425 6.272479576 -0.947263961
7.514756256 17.17056869 -1.209755894
4.437892537 7.704112884 -0.97308464
3.768938922 7.133709732 -0.959638422
3.232544741 6.698546942 -0.956622187
2.744857486 6.260454469 -0.946715241
7.574651917 17.16386793 -1.210915324
4.464500725 7.695620009 -0.973737429
3.792206831 7.124743275 -0.959992772
3.263925421 6.710896233 -0.959811392
2.760045977 6.242944154 -0.94534338
7.628491356 17.14328296 -1.211108562
4.480567237 7.669012344 -0.972105454
3.810762812 7.106949418 -0.959165996
3.280570059 6.692835541 -0.958663287
2.774346448 6.223590711 -0.94369716
7.68717794 17.13345482 -1.212074753
4.495504822 7.640664962 -0.970255922
3.835852128 7.10134046 -0.959992772
3.285274361 6.650726346 -0.954070869
2.788554028 6.204208028 -0.942050939
7.748754741 17.12979442 -1.213491794
4.520951659 7.630257879 -0.970691095
3.857620699 7.089538623 -0.959992772
3.295055213 6.619306235 -0.951009276
2.806757593 6.193818819 -0.941776578
7.818249042 17.14316603 -1.216132519
4.5412837 7.611229836 -0.970038305
3.877443734 7.074187485 -0.959520287
3.308676664 6.595868199 -0.949095788
2.822865329 6.17887184 -0.940816287
7.885396941 17.15083403 -1.218386886
4.555398031 7.581924293 -0.968079936
3.909207916 7.080513644 -0.962000615
3.327554674 6.583030554 -0.948713067
2.833106639 6.15128852 -0.937935415
7.950147412 17.15281751 -1.220254776
4.56783175 7.550051712 -0.965795171
3.929464315 7.065883558 -0.961646265
3.34863583 6.574558647 -0.948968176
2.856970819 6.15334905 -0.939581636
8.009070574 17.14190859 -1.221220967
4.586836064 7.529211003 -0.964924824
3.963255465 7.075453705 -0.96459902
3.365167641 6.557194976 -0.947947684
2.873736198 6.140069567 -0.938895707
13.84227123 24.59539309 -1.278147068
8.073953839 17.14343686 -1.223088857
4.598478737 7.496461534 -0.96253128
3.978113048 7.051153426 -0.962945468
3.380257893 6.537148436 -0.946544412
2.890869571 6.127640599 -0.938346928
4.619366587 7.478935333 -0.962096106
3.993349449 7.027691696 -0.961410052
3.399839408 6.525867881 -0.946416859
2.906677458 6.112480618 -0.937386636
4.638089864 7.457975187 -0.9612257
4.016863968 7.018854822 -0.961882479
3.424914969 6.525066589 -0.947820071
2.918566581 6.089242372 -0.935191695
4.660949005 7.443710555 -0.9612257
4.029452927 6.991011963 -0.959756558
3.446772056 6.518035704 -0.948330346
2.93680349 6.079367794 -0.935054485
8.309460355 17.09601957 -1.22688913
4.673691364 7.413398679 -0.959158551
4.057861189 6.990640428 -0.961410052
3.458825069 6.492549123 -0.946161749
2.961944896 6.083688485 -0.937112277
4.706001964 7.414131995 -0.961116921
4.076783474 6.973871678 -0.960819489
3.459966803 6.446950308 -0.941059057
2.978850261 6.071015485 -0.936563556
4.722838038 7.390445283 -0.959920119
4.111258034 6.983580522 -0.96389038
3.481144699 6.438922252 -0.941441777
4.730967349 7.353349661 -0.956982624
4.133676482 6.972642569 -0.964126592
3.500882501 6.428211787 -0.941441777
7.93098356 15.82054086 -1.142253872
4.748641307 7.331291329 -0.956003438
4.154539723 6.959075112 -0.964008456
3.523449809 6.422658591 -0.942207161
13.98115674 23.31202 -1.231051174
7.974983565 15.78722755 -1.141609785
4.759708501 7.299201995 -0.953718673
4.140056699 6.886722942 -0.955740815
3.53738131 6.401401042 -0.940676393
4.772805882 7.270438344 -0.951869141
4.160651485 6.873139298 -0.955622679
3.555556632 6.387918589 -0.940293672
8.219254561 16.0256918 -1.162478682
4.792348485 7.251614585 -0.95132513
4.183785686 6.863733942 -0.956095165
3.567377348 6.363138227 -0.938252631
3.081945644 5.999296731 -0.934094195
8.267007759 15.99774 -1.162285444
4.812371085 7.233567333 -0.950889956
4.198590272 6.84071036 -0.954677826
3.580054906 6.340072365 -0.936466696
8.385177099 16.10507197 -1.171946999
4.833987574 7.217943106 -0.950781119
4.211205002 6.814281924 -0.952788062
3.592624439 6.316989123 -0.934680763
11.24394583 19.66986191 -1.245688255
4.827769002 7.161042157 -0.945232462
4.239960447 6.813976302 -0.954559749
3.606072276 6.295609411 -0.933149937
11.32964593 19.67940414 -1.248488004
4.825713047 7.110828108 -0.940554212
4.247138325 6.77905778 -0.951488859
3.638751417 6.307712986 -0.936594251
11.40699636 19.6739215 -1.250354582
4.867165298 9.134075071 -1.049662876
4.890682583 7.159192722 -0.948931586
4.262618205 6.757596792 -0.950307792
3.635166843 6.257070293 -0.930726174
4.860344291 9.054231948 -1.04219632
4.912060458 7.143335206 -0.948822807
4.269489061 6.72269352 -0.947236961
3.650840035 6.23989563 -0.929833177
4.893305044 9.04890445 -1.043306159
4.923203346 7.112701659 -0.946755658
4.283674873 6.69952401 -0.945819623
3.661407247 6.21413863 -0.927664581
4.892012394 8.980555572 -1.037151265
4.933068156 7.080436099 -0.944470894
4.292383537 6.667980989 -0.943221217
3.686528003 6.213112087 -0.929195348
4.898482845 8.92712721 -1.032711673
4.947347375 7.054688146 -0.943056535
4.317681164 6.662280387 -0.944284207
3.694380339 6.183041644 -0.926388922
4.92151643 8.904219568 -1.031803654
4.972980411 7.045161438 -0.943818104
4.329418789 6.635696443 -0.942394442
4.940099902 8.873431987 -1.029987382
4.985359142 7.016905709 -0.94207735
4.34648536 6.617403009 -0.941685802
4.972166153 8.866912829 -1.030996371
4.998190241 6.98944888 -0.940445375
4.361837512 6.596582083 -0.940622812
4.952376094 8.768454018 -1.021310019
5.026578499 6.983763664 -0.941750955
4.379854052 6.579862648 -0.940150386
4.974334769 8.744570902 -1.020301031
5.04681414 6.966699391 -0.941533339
4.393939844 6.557320292 -0.938851183
4.996193532 8.720636552 -1.019292043
5.052351616 6.929495611 -0.938595842
4.404597003 6.529814273 -0.936843341
5.002041275 8.669074524 -1.015054155
5.070058332 6.909153923 -0.937943052
4.421820046 6.512162776 -0.936252778
5.016617741 8.633042395 -1.012632655
5.087097824 6.887969369 -0.937181483
4.428330298 6.478891253 -0.933418161
5.033029787 8.600437076 -1.010614561
5.108205579 6.872330123 -0.937181483
4.440869513 6.454639789 -0.931882745
5.06242253 8.590098402 -1.011220024
5.124501924 6.850258045 -0.936311077
4.457824084 6.436903073 -0.931292182
1.606030345 2.501148393 -0.844407211
5.075043238 8.551426321 -1.008495734
5.13891751 6.825768572 -0.935114335
4.449726427 6.383280746 -0.92550481
5.08594328 8.510195786 -1.005468654
5.152630605 6.800462446 -0.933808755
4.488110704 6.396423448 -0.929402417
16.52366982 23.4484948 -1.299093571
5.119723642 8.507339451 -1.006982254
5.173469925 6.784622179 -0.933808755
4.482508511 6.346935214 -0.924205608
23.022174 30.07546398 -1.362354805
5.140128012 8.482232239 -1.005872296
5.198496732 6.774238994 -0.934570324
4.485850212 6.310491527 -0.920898563
23.14787927 30.04823249 -1.364331891
5.161980798 8.459628663 -1.00506513
5.222293195 6.762191811 -0.935114335
4.503455874 6.294276416 -0.920544213
23.36486728 30.13819533 -1.371664812
5.193118802 8.452228815 -1.006074117
5.222884288 6.720237077 -0.93152399
4.519844034 6.276401622 -0.91995371
23.74921266 30.44063411 -1.388739159
5.215361198 8.430334309 -1.005367802
5.254500692 6.718276265 -0.93348236
4.530336926 6.250445096 -0.918182022
5.231732556 8.399094038 -1.003551649
5.256642751 6.678689814 -0.93021841
4.54656603 6.232505819 -0.917591519
5.25324687 8.376260644 -1.002744364
5.262295197 6.643829447 -0.927607309
5.260860213 8.331502519 -0.999313759
5.290088543 6.636981977 -0.92891283
5.299740055 8.336313749 -1.001836347
5.303583845 6.612190795 -0.927716087
24.23654252 30.10156064 -1.390069177
5.296864959 8.275603026 -0.996488617
5.310733326 6.57964447 -0.925431322
4.612590353 6.162728383 -0.915583617
5.318456672 8.253460067 -0.995782303
5.327760894 6.559462672 -0.92488737
4.632073266 6.149340911 -0.915701753
6.491552635 9.250212208 -1.034612994
5.329133382 8.214568911 -0.993058013
5.336536249 6.529232143 -0.922929
6.436592935 9.112312469 -1.02139316
5.350502019 8.192349163 -0.992351697
5.355911149 6.512061365 -0.922820221
6.450092609 9.072232249 -1.019113878
5.364678825 8.15927014 -0.990333723
5.363822819 6.481048614 -0.920753014
6.454714859 9.020007183 -1.01546691
5.379801483 8.127839293 -0.988517451
5.38813382 6.469909127 -0.921514641
6.488759263 9.009050652 -1.016469818
5.402505673 8.107984363 -0.988113926
5.407319713 6.452586147 -0.921405804
16.04598085 20.54969847 -1.180743303
6.48071502 8.939918272 -1.010908347
5.416270905 8.074846869 -0.986095951
5.42068242 6.428366791 -0.92031784
6.520437818 8.9368881 -1.012822967
5.434337987 8.048297572 -0.984885143
5.448739771 6.421559739 -0.921732199
6.49654564 8.847008901 -1.004891137
5.450056001 8.018422069 -0.983270692
5.43872354 6.370037395 -0.916727554
6.49583955 8.789396497 -1.000606041
5.458338536 7.977852266 -0.980344581
5.453706403 6.348043311 -0.915965926
6.529906213 8.779014038 -1.001700143
5.463037948 7.932390325 -0.976813124
5.464054851 6.32075358 -0.914442789
15.65915407 19.43228772 -1.130209174
6.517421536 8.706323439 -0.995682816
5.469777114 7.890245466 -0.973685192
5.478854059 6.298710122 -0.91368122
15.66018224 19.31199414 -1.126001802
6.542304089 8.683901189 -0.995409231
5.482571961 7.857109689 -0.971667217
5.4902963 6.272895465 -0.91237564
15.72819928 19.27469422 -1.126635161
6.565304943 8.659028158 -0.994862181
5.503791897 7.836181617 -0.971162723
5.497032605 6.241847623 -0.910308491
15.75175788 19.18311606 -1.124101606
6.588215087 8.634095218 -0.994315247
5.527232787 7.818446648 -0.971061812
5.512859788 6.221233552 -0.90976448
15.80862731 19.13238867 -1.123965945
6.561905998 8.545127027 -0.9863833
5.548886352 7.798210381 -0.970658171
5.518027729 6.188710092 -0.907479774
15.83914857 19.05000039 -1.12197527
6.56982323 8.501316429 -0.983648162
5.575681509 7.785194099 -0.971162723
6.594040094 8.478762436 -0.983374637
5.608848033 7.78096468 -0.972777115
6.616339022 8.453786271 -0.982827585
5.619840064 7.746004248 -0.970557319
6.629920337 8.417801989 -0.98100416
5.629496821 7.709442304 -0.968135701
6.639632026 8.377130554 -0.978633742
5.659014201 7.70015181 -0.969144689
6.649156718 8.336479293 -0.976263265
5.667820512 7.662757189 -0.96662222
6.672207775 8.312934232 -0.975898604
5.68833258 7.64134251 -0.966117668
6.668271681 8.256014527 -0.971613508
5.683115831 7.58563626 -0.961274492
16.01331927 18.32531822 -1.102114525
6.694825434 8.237062649 -0.971795897
5.704564656 7.565781661 -0.960971819
16.0819986 18.2903582 -1.102974143
6.713129845 8.208005768 -0.97079299
5.71932955 7.537149131 -0.95955919
16.10957359 18.20876074 -1.101028767
8.197853963 9.257296675 -1.015532009
6.747772532 8.198904665 -0.972160559
5.741822439 7.518776396 -0.959458279
15.57220429 17.49293277 -1.06062862
8.20897804 9.212755694 -1.013403885
6.767812985 8.172029102 -0.971431177
5.771531674 7.509802288 -0.960568177
15.52048885 17.32750373 -1.053480592
8.166680128 9.108867654 -1.004727594
6.769264352 8.122921621 -0.968057852
5.80793466 7.509373733 -0.962787973
15.52341608 17.2241523 -1.050087419
8.153197474 9.0378891 -0.999652854
6.765998792 8.068540448 -0.96404628
5.835834588 7.497801176 -0.963595199
8.169499958 9.000287335 -0.998261325
6.779803479 8.034806444 -0.962496381
5.869852722 7.493959736 -0.965411411
8.143304806 8.916308471 -0.991713159
6.806355406 8.01624552 -0.962769906
5.906366057 7.493105833 -0.967631208
8.098464357 8.812761255 -0.98295509
6.830916972 7.995326277 -0.962769906
5.93118154 7.477288451 -0.967933881
8.168089626 8.833975697 -0.988111726
6.848273012 7.966025304 -0.961766999
5.953473039 7.458278795 -0.96783297
8.114369519 8.722041074 -0.978371374
6.854438127 7.923889893 -0.959214192
5.945173933 7.401196691 -0.962787973
8.12270119 8.677460729 -0.976161413
6.830334057 7.847238262 -0.952467541
5.959721924 7.372863722 -0.961476313
8.132202071 8.634361517 -0.974115126
6.857001666 7.829242478 -0.952832203
5.975407579 7.346054862 -0.960366415
8.138772329 8.588392762 -0.97174143
6.88823163 7.816387099 -0.953835111
5.987204085 7.314600312 -0.958651112
8.148576503 8.546070933 -0.96977698
6.905572734 7.787766632 -0.952923398
5.981152988 7.261640063 -0.954110609
8.162337498 8.508086472 -0.968303672
6.922139913 7.758370447 -0.951920491
5.980547784 7.215679917 -0.950478183
8.180096301 8.474399342 -0.967321448
6.927947718 7.717089193 -0.949458878
5.986726489 7.178197107 -0.947955715
8.197029263 8.439969343 -0.966257385
6.929562677 7.671411595 -0.946450215
5.997208594 7.146078841 -0.946139502
8.209649723 8.401237387 -0.964702181
6.923594963 7.617690796 -0.942438702
6.012043218 7.119284584 -0.945029603
8.194858755 8.334791705 -0.95995479
6.946260838 7.595678799 -0.942347507
6.027414236 7.093224776 -0.944020616
8.209876827 8.298983806 -0.958727053
6.955371177 7.55894311 -0.940432887
6.045914693 7.070918745 -0.943516063
8.219831866 8.258216859 -0.956926279
6.972439931 7.530992271 -0.939612369
6.06887735 7.053845165 -0.943717884
8.245128708 8.232959556 -0.956926278
6.991439394 7.505193481 -0.939065318
6.072256745 7.014131943 -0.940892684
8.257614888 8.194988857 -0.955452971
7.017156071 7.486615031 -0.939430038
6.097667892 6.999970624 -0.941498088
8.269945659 8.157018201 -0.953979663
7.056489317 7.482439042 -0.941618125
6.102064789 6.961777775 -0.938874709
8.264329278 8.101606788 -0.950460009
7.093121292 7.475202781 -0.943441551
6.116155285 6.934815972 -0.93776481
8.273440553 8.060913448 -0.948659293
7.124273469 7.462049515 -0.944535595
6.146647524 6.926437566 -0.939177381
8.287392726 8.02509342 -0.947431497
7.153341884 7.446620844 -0.945356171
6.164555528 6.903836638 -0.938672888
8.307665909 7.995483744 -0.946940414
7.176154214 7.42463954 -0.945356171
6.181717742 6.880450929 -0.938067483
8.280301212 7.920357124 -0.941047124
7.192650385 7.396163292 -0.944535594
6.200128783 6.858501541 -0.9376639
8.34067748 7.929251133 -0.945139698
7.208343109 7.366943712 -0.943623881
6.217124555 6.835031611 -0.937058496
8.350476643 7.889935022 -0.943502657
7.180608874 7.29370019 -0.937059562
6.219928693 6.79610938 -0.934334205
8.315794603 7.809016783 -0.936872653
7.177021706 7.245458719 -0.933686237
6.229966445 6.765285357 -0.932719813
12.24612134 12.30143024 -0.954345102
8.344084705 7.787547748 -0.937363795
7.192890003 7.217057537 -0.932865661
6.25136913 6.746870149 -0.932820665
12.27956485 12.25956914 -0.954015667
8.328480109 7.725311534 -0.932943813
7.193138114 7.173157752 -0.930039386
6.2564349 6.710922189 -0.930500017
12.319954 12.22465083 -0.95423531
8.338951912 7.687564244 -0.931470446
7.215111439 7.15105567 -0.930039387
6.268826323 6.682988507 -0.929289208
12.30123734 12.1314087 -0.949898357
8.296362309 7.601349319 -0.924103848
7.217152062 7.109318422 -0.927486579
6.284519849 6.658659786 -0.928582894
8.30122095 7.559084946 -0.922057561
7.220428219 7.069029839 -0.925116103
6.288476517 6.6220335 -0.926161276
8.314027599 7.524219173 -0.920911603
7.238513085 7.043372553 -0.924660247
6.30670112 6.600551628 -0.925858604
7.265814313 7.026670296 -0.925389628
6.317958195 6.57184812 -0.924546885
7.278722265 6.996064926 -0.924295585
6.33463216 6.548858609 -0.924042391
7.296551238 6.970261801 -0.923839729
6.34081573 6.515133643 -0.922024415
7.283236607 6.914931509 -0.919463496
6.35311715 6.48783077 -0.920914459
7.301519658 6.889820307 -0.919098775
6.368104139 6.463347969 -0.920208203
7.313906685 6.859212615 -0.918004732
6.380198671 6.436008478 -0.919098305
7.327631316 6.829951993 -0.91709302
6.386564991 6.40302042 -0.917181181
7.349281529 6.808115734 -0.917184215
6.388560187 6.365840525 -0.914658712
7.391379552 6.8050969 -0.919828158
6.397456684 6.335709278 -0.913145172
7.390916601 6.762893018 -0.917184214
6.409064527 6.308375663 -0.912035274
7.410156645 6.738846137 -0.917001883
6.419143194 6.279638756 -0.910723614
7.405677462 6.693377341 -0.913902025
6.429105566 6.25089949 -0.909411895
8.449831126 7.055145411 -0.904050223
7.415805802 6.661309086 -0.912625651
6.454691563 6.237368015 -0.910319971
8.516688782 7.066736977 -0.908879451
7.440664686 6.642505473 -0.913172643
6.457293582 6.201685098 -0.907999265
8.551401066 7.051353812 -0.910270922
7.44834513 6.608411106 -0.911622743
6.44822222 6.155054487 -0.904064166
8.571451698 7.023822201 -0.910107247
7.470825266 6.587504605 -0.911896269
6.454083547 6.122917363 -0.902248012
8.585232049 6.99119887 -0.909288696
7.485008539 6.559302945 -0.911166887
6.454741217 6.086024754 -0.899725484
8.604315924 6.962946158 -0.909043125
7.505097064 6.536308324 -0.911166887
6.467574989 6.060750772 -0.898918259
8.572048384 6.893419795 -0.903395406
7.51758539 6.506735225 -0.910255175
6.471577809 6.027318589 -0.896900283
8.639092822 6.903797907 -0.908224635
7.484665098 6.438182563 -0.903873186
6.489308847 6.006760057 -0.896799373
8.589208352 6.820859388 -0.90077614
7.48772896 6.400953772 -0.90186743
6.511367735 5.990190746 -0.897303867
8.612441288 6.796328573 -0.901021711
7.495947548 6.368280641 -0.900499861
6.52530903 5.966157976 -0.896698462
8.62540902 6.763723874 -0.900203161
7.493384007 6.326622908 -0.897855859
6.531801255 5.935405136 -0.89508407
7.478429021 6.274799433 -0.893753152
6.541119782 5.9073364 -0.893873262
7.517530328 6.268407998 -0.896123628
6.564395418 5.891892398 -0.894579577
7.525991157 6.236419416 -0.894847195
6.580955847 5.870400655 -0.894377756
7.531251585 6.201905924 -0.893206101
6.596701461 5.848203168 -0.894075083
7.540224798 6.170572399 -0.892020921
6.610133556 5.823991025 -0.893469678
8.576627058 6.474113921 -0.882523231
7.556029793 6.14489696 -0.891656201
8.606813559 6.455544729 -0.883587352
7.57097423 6.118556747 -0.891200345
8.616988332 6.421962206 -0.882605127
7.553993611 6.066616978 -0.887006502
8.639053687 6.397274974 -0.88285064
7.553111629 6.027883624 -0.884727161
8.668272733 6.377828539 -0.883832864
7.547381317 5.985500475 -0.881900887
8.685385061 6.34943986 -0.883587352
8.692728135 6.313978126 -0.882359556
8.688621577 6.270365694 -0.879985861
8.716727464 6.250068083 -0.880886249
10.03152794 6.304001845 -0.859450886
10.0516672 6.273724013 -0.859523246
10.07256297 6.243907079 -0.859667966
10.09506878 6.215067441 -0.859957347
10.08685889 6.167417797 -0.857642123
10.07333729 6.116771488 -0.8548928
10.09376388 6.086867853 -0.855037519
10.09784474 6.047160697 -0.853807578
2.421936178 1.661019028 -0.834296177
2.415353235 1.63480427 -0.8285575
21.9271754 10.04711773 -0.867557576
21.98203164 9.909511138 -0.867305984
22.0223668 9.846511353 -0.867701401
21.6349746 9.593767191 -0.851274063
21.67253907 9.530967867 -0.851597538
21.52305114 9.386530776 -0.844588091
21.54532697 9.31767771 -0.844336441
20.8911902 8.883023859 -0.816550186
20.8106028 8.773466775 -0.812344482
20.86600493 8.721526476 -0.813458791
16.48778198 7.607896827 -0.822344568
11.62753506 6.42452928 -0.85743111
20.85388822 8.641401829 -0.811949065
16.50196188 7.553119695 -0.821892169
11.6883125 6.411383205 -0.860458371
20.57340123 8.451311443 -0.800015022
16.39861987 7.445053737 -0.8156037
11.67024233 6.354971997 -0.857688722
20.62792608 8.399837205 -0.801129332
16.46328413 7.413576989 -0.817684737
11.70285165 6.326256633 -0.858654913
20.48679068 8.269181829 -0.794659068
16.53703057 7.385846855 -0.820218232
11.70198157 6.279470294 -0.85717344
20.59928247 8.241184295 -0.798037996
16.59523531 7.350856024 -0.821982649
11.63840007 6.199439053 -0.85111886
20.48511961 8.12269408 -0.792646041
16.72380533 7.346513995 -0.827230599
11.65030694 6.159972058 -0.850603578
20.50529262 8.05798018 -0.792466332
16.7581708 7.300358201 -0.827818718
11.64706022 6.112606916 -0.848993358
20.46286967 7.968922348 -0.789878239
16.7658156 7.242571959 -0.827094879
11.63743753 6.062092443 -0.846932229
20.49095127 7.907544948 -0.790022006
16.85499131 7.219815214 -0.830397454
11.59215629 5.993362012 -0.84229469
20.36203079 7.786105648 -0.784126868
16.61685013 7.057552211 -0.817594257
13.82006316 6.470858634 -0.839004571
20.27648282 7.682173452 -0.779921164
16.47362182 6.937140792 -0.809496131
13.82173911 6.42001651 -0.837906653
20.27656468 7.611149717 -0.779022505
16.46164138 6.872712518 -0.807867494
13.70987568 6.316994212 -0.829946453
20.31949073 7.556221164 -0.779777398
16.500186 6.829435373 -0.808727052
13.79003682 6.302712379 -0.833624596
20.36602108 7.502482336 -0.780676057
16.49056183 6.766267032 -0.807234075
13.6919947 6.207191908 -0.826542789
20.29694072 7.406393225 -0.777153304
16.51957231 6.719030357 -0.807641294
13.67819 6.150415037 -0.824566419
20.15321379 7.283963159 -0.770790865
16.52713597 6.663088113 -0.807007876
13.67510876 6.098661273 -0.823248917
20.16229351 7.217384555 -0.770287623
16.49369675 6.590852398 -0.804383901
13.66910007 6.045773208 -0.821766669
20.06095052 7.111750129 -0.765578678
16.45439756 6.516677436 -0.801488486
13.67386728 5.997792365 -0.820943172
20.10624773 7.058446188 -0.766477337
16.46036488 6.460690515 -0.800809887
13.68579501 5.953025498 -0.820558901
20.12025622 6.994102979 -0.766189804
16.30693638 6.342803013 -0.792395082
13.71866386 5.917337221 -0.821437235
11.6723976 5.544014493 -0.834050116
19.88364806 6.843553323 -0.756376495
16.36826522 6.308911843 -0.794430938
13.69452336 5.857159144 -0.818911965
11.68303209 5.505200227 -0.833599266
20.01711646 6.82087659 -0.760654082
16.19436397 6.184887034 -0.785066035
13.678416 5.800693795 -0.816880757
11.69082685 5.4651053 -0.832955178
20.12695986 6.789458937 -0.76403301
16.21046075 6.134113505 -0.784930315
13.67958002 5.751735371 -0.815892572
11.70210667 5.426693727 -0.832568702
27.73557562 12.76990001 -0.851828558
20.03679049 6.690645569 -0.759827306
16.18991678 6.069622822 -0.783030179
13.71835921 5.718576062 -0.817155237
11.70147541 5.382842516 -0.8313449
27.70551861 12.65318788 -0.849709136
20.07809791 6.636041651 -0.76061814
16.16257443 6.002881484 -0.780813363
13.68047097 5.653580781 -0.813861365
27.73510186 12.56400415 -0.849430246
20.07271667 6.566022509 -0.759647598
13.67372817 5.601741501 -0.812434012
27.71516209 12.45263567 -0.847645504
19.92257856 6.449316203 -0.753213277
13.68622419 5.55788644 -0.812159533
27.7888439 12.38341635 -0.84873311
19.81474106 6.347312174 -0.748396506
13.68653833 5.509160068 -0.811171348
27.74716103 12.26294811 -0.846306962
19.82840491 6.284679591 -0.748180797
16.19833699 5.790974715 -0.779049006
13.69317473 5.463074468 -0.810567493
27.75352555 12.16412027 -0.845358831
19.71123172 6.181057554 -0.743040552
16.21414359 5.740584632 -0.778958526
13.71544125 5.423241675 -0.810896868
27.79988084 12.08290068 -0.845637662
19.6546983 6.09716365 -0.740200808
16.23639264 5.692466191 -0.779184726
27.77439714 11.970651 -0.843741399
19.70006252 6.04504373 -0.741207292
13.71774382 5.327055239 -0.809085244
27.9194565 11.93173752 -0.847031993
16.24928613 5.585265366 -0.778144148
24.88553621 8.190702117 -0.7308837
24.91434853 8.115553927 -0.73099528
25.51508135 8.138408916 -0.747141701
25.51587258 7.966504345 -0.745719475
25.22257093 7.368234814 -0.733058912
25.31036375 7.309678466 -0.734955174
25.43551908 7.261354477 -0.737939042
